-42.200000	23.390000	-131.470000
35.330000	37.600000	-109.090000
34.900000	37.520000	-111.860000
-41.580000	23.520000	-113.160000
-41.690000	23.500000	-111.050000
-41.750000	23.490000	-106.990000
-41.990000	23.450000	-102.310000
-41.460000	23.550000	-101.260000
-41.350000	23.590000	-69.610000
34.730000	37.510000	-68.620000
-41.090000	23.640000	-67.520000
35.160000	37.570000	-107.980000
34.910000	37.520000	-104.000000
-41.770000	23.480000	-119.810000
34.600000	37.470000	-98.200000
34.950000	37.540000	-92.380000
34.520000	37.460000	-93.570000
34.630000	37.480000	-95.900000
34.590000	37.480000	-76.900000
35.110000	37.570000	-80.210000
34.740000	37.510000	-72.180000
34.200000	37.410000	-62.210000
-41.440000	23.530000	-127.170000
-41.080000	23.610000	-116.180000
-41.650000	23.500000	-117.700000
34.730000	37.490000	-104.500000
34.500000	37.450000	-106.900000
34.310000	37.410000	-113.520000
34.680000	37.480000	-116.030000
-40.920000	23.630000	-122.090000
-41.410000	23.550000	-108.670000
-40.840000	23.650000	-104.320000
-40.990000	23.630000	-103.310000
-40.770000	23.670000	-102.170000
-40.720000	23.700000	-71.110000
-40.440000	23.720000	-129.770000
34.620000	37.490000	-64.430000
-40.520000	23.700000	-130.990010
-41.110000	23.590000	-128.429990
-40.380000	23.740000	-107.480000
-41.100000	23.610000	-110.190000
34.680000	37.500000	-70.560000
34.510000	37.460000	-73.840000
34.650000	37.480000	-97.280000
34.120000	37.380000	-100.020000
33.540000	37.280000	-94.340000
-40.610000	23.680000	-121.580000
34.400000	37.440000	-78.730000
34.280000	37.420000	-86.440000
34.500000	37.460000	-84.000000
34.340000	37.430000	-85.130000
34.850000	37.530000	-66.410000
-40.740000	23.660000	-124.060000
-40.230000	23.760000	-116.590000
-40.510000	23.720000	-113.800000
-40.670000	23.690000	-111.750000
-39.900000	23.830000	-103.120000
-40.830000	23.660000	-100.510000
-39.860000	23.820000	-134.940000
-40.890000	23.640000	-132.700000
34.210000	37.400000	-105.610000
34.250000	37.400000	-109.070000
34.260000	37.400000	-110.190000
33.110000	37.190000	-114.910000
34.060000	37.370000	-117.470000
-40.280000	23.770000	-99.220000
-40.520000	23.700000	-127.520000
-39.630000	23.860000	-124.400000
-40.070000	23.780000	-122.740000
34.370000	37.450000	-60.660000
-40.450000	23.720000	-118.850000
-40.150000	23.780000	-117.740000
-39.460000	23.900000	-116.220000
33.970000	37.370000	-65.090000
-40.180000	23.770000	-115.180000
34.000000	37.380000	-67.270000
-39.990000	23.810000	-112.810000
33.720000	37.310000	-101.430000
-39.770000	23.880000	-68.080000
-40.350000	23.770000	-70.050000
33.230000	37.220000	-97.670000
34.240000	37.410000	-91.810000
34.380000	37.440000	-91.100000
34.150000	37.390000	-80.520000
33.630000	37.300000	-83.250000
33.880000	37.350000	-82.170000
33.010000	37.190000	-84.180000
33.380000	37.260000	-70.080000
33.470000	37.270000	-71.560000
33.310000	37.250000	-66.020000
34.060000	37.380000	-89.680000
-39.760000	23.880000	-68.910000
33.630000	37.300000	-92.560000
-39.770000	23.840000	-129.110000
-39.910000	23.810000	-125.350000
-39.190000	23.960000	-102.910000
-39.620000	23.880000	-103.980000
-39.570000	23.890000	-108.260000
33.500000	37.260000	-103.090000
-39.570000	23.890000	-111.680000
33.740000	37.310000	-104.560000
-39.680000	23.860000	-119.920000
33.990000	37.360000	-107.810000
-39.420000	23.910000	-118.570000
32.850000	37.150000	-109.370000
33.300000	37.230000	-111.180000
-39.550000	23.880000	-128.020000
33.650000	37.290000	-116.270000
33.520000	37.270000	-117.940000
33.520000	37.270000	-120.950000
33.270000	37.220000	-119.380000
-39.710000	23.850000	-133.100010
-39.780000	23.850000	-109.640000
33.630000	37.310000	-63.640000
-40.190000	23.780000	-105.730000
33.680000	37.320000	-68.360000
-39.390000	23.930000	-100.700000
33.550000	37.280000	-106.510000
34.050000	37.380000	-72.250000
33.200000	37.220000	-96.170000
33.830000	37.330000	-96.780000
-39.460000	23.920000	-101.730000
32.920000	37.170000	-91.150000
33.210000	37.220000	-79.140000
33.520000	37.280000	-77.900000
33.120000	37.210000	-88.520000
33.120000	37.210000	-74.720000
33.340000	37.250000	-72.770000
33.020000	37.190000	-85.680000
33.010000	37.190000	-87.130000
32.820000	37.160000	-60.900000
-39.140000	23.990000	-73.880000
-39.680000	23.890000	-72.490000
-39.460000	23.930000	-70.870000
-38.660000	24.080000	-69.100000
-39.610000	23.910000	-66.850000
-39.350000	23.920000	-131.570010
-39.090000	23.990000	-99.420000
-38.620000	24.060000	-105.610000
-39.340000	23.910000	-121.610000
32.880000	37.170000	-59.840000
32.420000	37.090000	-62.320000
32.900000	37.170000	-64.090000
-39.110000	23.970000	-117.270000
32.810000	37.140000	-112.480000
32.800000	37.160000	-67.490000
-39.290000	23.940000	-114.200000
-38.800000	24.030000	-115.460000
32.820000	37.140000	-99.020000
32.980000	37.180000	-73.570000
-38.790000	24.030000	-112.790000
-39.460000	23.910000	-110.940000
33.210000	37.220000	-75.870000
33.140000	37.210000	-77.180000
32.890000	37.170000	-81.650000
32.760000	37.140000	-89.710000
-38.930000	24.010000	-112.160000
-39.340000	23.930000	-106.870000
32.270000	37.050000	-92.890000
32.330000	37.060000	-94.580000
-38.690000	24.050000	-104.760000
-38.830000	24.030000	-98.200000
-38.360000	24.130000	-73.630000
-38.590000	24.090000	-71.570000
-38.480000	24.120000	-67.660000
32.060000	37.000000	-104.110000
32.650000	37.110000	-105.690000
32.830000	37.150000	-107.510000
32.330000	37.050000	-116.520000
32.540000	37.090000	-113.700000
32.360000	37.060000	-118.210000
33.040000	37.180000	-117.120000
-38.900000	24.040000	-65.530000
-38.550000	24.060000	-132.170000
-39.100000	23.960000	-130.090000
32.130000	37.010000	-122.190000
32.030000	37.000000	-124.080000
-39.480000	23.890000	-126.350000
32.140000	37.010000	-125.860000
-39.020000	23.970000	-124.350000
-38.900000	24.000000	-123.170000
31.880000	36.970000	-111.070000
-38.500000	24.080000	-118.130000
32.560000	37.110000	-68.680000
-38.460000	24.080000	-128.730000
31.990000	36.990000	-102.150000
32.480000	37.080000	-100.210000
-38.250000	24.130000	-110.480000
32.360000	37.070000	-72.070000
32.170000	37.030000	-77.060000
32.490000	37.090000	-78.320000
32.370000	37.070000	-80.200000
31.800000	36.960000	-76.070000
31.870000	36.980000	-74.210000
32.410000	37.090000	-64.820000
-38.440000	24.090000	-108.960000
-38.590000	24.090000	-75.080000
-38.340000	24.140000	-70.230000
32.150000	37.020000	-106.530000
-37.890000	24.220000	-69.850000
32.180000	37.030000	-120.310000
32.230000	37.050000	-58.550000
32.230000	37.020000	-127.270000
-38.680000	24.040000	-133.870000
-38.120000	24.160000	-100.100000
-38.020000	24.160000	-126.340000
32.270000	37.060000	-69.830000
32.130000	37.030000	-70.680000
31.810000	36.960000	-108.260000
-38.150000	24.150000	-106.670000
31.810000	36.970000	-95.690000
-38.270000	24.130000	-103.760000
-38.000000	24.170000	-116.910000
31.600000	36.930000	-90.220000
31.940000	36.980000	-96.990000
31.930000	36.990000	-86.120000
31.390000	36.890000	-79.230000
31.450000	36.900000	-81.090000
32.180000	37.040000	-82.670000
31.520000	36.910000	-87.280000
31.640000	36.940000	-85.060000
31.620000	36.940000	-68.620000
31.480000	36.920000	-65.320000
31.990000	37.010000	-66.550000
32.020000	37.010000	-88.800000
31.730000	36.960000	-63.820000
31.330000	36.890000	-57.830000
-37.810000	24.210000	-114.210000
31.700000	36.940000	-91.490000
-37.810000	24.210000	-112.230000
31.440000	36.890000	-98.010000
-37.970000	24.190000	-101.240000
31.500000	36.900000	-112.560000
31.540000	36.910000	-115.240000
31.470000	36.900000	-117.690000
31.250000	36.860000	-119.030000
31.190000	36.840000	-120.690000
31.200000	36.840000	-125.010000
-37.890000	24.230000	-66.300000
-37.750000	24.250000	-72.700000
31.170000	36.830000	-127.220000
31.660000	36.950000	-59.510000
30.970000	36.800000	-129.720000
31.080000	36.830000	-105.820000
31.440000	36.910000	-67.510000
-37.510000	24.290000	-71.370000
-37.410000	24.310000	-74.140000
31.310000	36.880000	-71.620000
31.160000	36.860000	-70.040000
31.350000	36.890000	-72.560000
31.150000	36.840000	-101.010000
-37.710000	24.260000	-68.480000
30.920000	36.800000	-93.730000
31.020000	36.820000	-92.500000
-37.190000	24.350000	-70.400000
30.990000	36.810000	-77.640000
31.700000	36.950000	-83.700000
31.020000	36.830000	-82.740000
31.230000	36.870000	-60.950000
-37.390000	24.300000	-88.260000
-37.500000	24.260000	-132.810000
-37.620000	24.240000	-129.530000
-37.680000	24.220000	-131.060000
31.570000	36.920000	-99.200000
-37.130000	24.350000	-89.230000
-38.090000	24.150000	-127.550000
30.450000	36.710000	-107.240000
31.110000	36.830000	-109.860000
-37.870000	24.210000	-102.470000
31.080000	36.820000	-113.650000
30.890000	36.790000	-116.280000
30.310000	36.670000	-133.590000
30.570000	36.720000	-125.700000
30.740000	36.780000	-59.300000
30.850000	36.800000	-62.630000
30.670000	36.740000	-130.710010
30.620000	36.760000	-66.460000
30.250000	36.670000	-112.470000
30.720000	36.780000	-67.800000
30.770000	36.770000	-103.410000
30.570000	36.740000	-104.680000
30.960000	36.810000	-96.310000
31.020000	36.820000	-97.260000
30.220000	36.670000	-98.660000
-37.670000	24.220000	-124.560000
-37.690000	24.230000	-111.460000
30.510000	36.730000	-73.590000
-38.130000	24.130000	-121.700000
30.690000	36.760000	-75.160000
30.840000	36.790000	-86.390000
30.750000	36.770000	-88.870000
30.720000	36.770000	-85.560000
30.510000	36.740000	-84.050000
30.390000	36.720000	-64.220000
30.520000	36.730000	-90.640000
-38.260000	24.110000	-119.880000
30.680000	36.760000	-94.860000
-37.430000	24.270000	-125.120000
-36.880000	24.380000	-111.770000
-37.220000	24.310000	-108.950000
-37.000000	24.370000	-101.880000
30.130000	36.650000	-100.120000
-37.530000	24.270000	-98.760000
-37.060000	24.350000	-95.370000
-37.460000	24.290000	-80.600000
30.260000	36.670000	-108.790000
30.410000	36.700000	-111.150000
-37.180000	24.360000	-67.230000
30.170000	36.660000	-119.690000
30.660000	36.740000	-123.200000
-36.890000	24.410000	-69.370000
30.200000	36.660000	-127.080000
30.160000	36.680000	-58.090000
30.670000	36.740000	-128.370000
30.270000	36.670000	-124.500000
30.210000	36.660000	-121.890000
30.060000	36.630000	-131.870000
30.350000	36.690000	-117.320000
30.200000	36.650000	-135.690000
29.780000	36.610000	-69.210000
30.000000	36.610000	-136.929990
30.320000	36.690000	-101.510000
30.590000	36.740000	-91.610000
30.250000	36.680000	-75.900000
30.100000	36.650000	-87.630000
29.750000	36.590000	-79.790000
30.190000	36.670000	-78.360000
29.920000	36.630000	-81.460000
30.440000	36.730000	-70.840000
30.020000	36.650000	-61.580000
29.440000	36.530000	-86.150000
-37.410000	24.310000	-76.270000
-37.300000	24.320000	-82.480000
29.330000	36.510000	-94.280000
-37.320000	24.320000	-86.640000
-37.220000	24.350000	-64.920000
30.000000	36.630000	-95.370000
-37.140000	24.340000	-90.280000
-36.570000	24.440000	-97.520000
-37.130000	24.320000	-128.429990
-37.450000	24.280000	-105.270000
-36.820000	24.370000	-122.670000
-37.290000	24.290000	-123.280000
30.280000	36.680000	-113.780000
30.190000	36.660000	-115.120000
29.740000	36.580000	-118.460000
30.050000	36.630000	-118.940000
30.130000	36.670000	-56.820000
29.950000	36.610000	-125.540000
29.810000	36.610000	-60.830000
29.730000	36.570000	-128.050000
29.350000	36.510000	-129.050000
30.180000	36.680000	-65.130000
29.980000	36.620000	-110.340000
29.690000	36.560000	-134.860000
29.790000	36.600000	-72.160000
-36.660000	24.400000	-121.880000
29.170000	36.460000	-139.330000
29.900000	36.610000	-96.980000
29.460000	36.530000	-91.900000
29.200000	36.490000	-90.970000
29.830000	36.600000	-92.770000
29.820000	36.600000	-76.570000
29.700000	36.580000	-88.540000
28.990000	36.450000	-82.730000
28.930000	36.440000	-84.630000
29.490000	36.560000	-63.150000
29.480000	36.540000	-89.820000
29.150000	36.490000	-58.990000
-36.910000	24.350000	-120.910000
-36.840000	24.370000	-118.560000
-37.270000	24.310000	-115.300000
-37.030000	24.350000	-112.970000
29.570000	36.550000	-104.020000
29.440000	36.530000	-105.900000
28.700000	36.390000	-113.610000
29.640000	36.560000	-116.430000
29.360000	36.510000	-115.060000
29.490000	36.520000	-120.900000
29.170000	36.460000	-122.890000
29.530000	36.530000	-123.970000
28.630000	36.370000	-125.150000
28.690000	36.390000	-126.890000
29.080000	36.460000	-131.030000
29.390000	36.540000	-65.990000
29.480000	36.550000	-64.730000
29.440000	36.540000	-67.510000
28.930000	36.420000	-121.810000
29.480000	36.520000	-135.759990
29.030000	36.450000	-102.510000
28.890000	36.410000	-137.720000
29.210000	36.500000	-70.860000
29.040000	36.460000	-97.980000
29.200000	36.500000	-74.590000
28.840000	36.430000	-72.680000
-36.750000	24.400000	-110.030000
-37.120000	24.340000	-107.890000
29.240000	36.490000	-77.620000
29.000000	36.450000	-78.990000
29.190000	36.490000	-75.600000
29.230000	36.510000	-63.620000
28.520000	36.360000	-87.770000
28.650000	36.390000	-89.110000
-36.440000	24.460000	-102.860000
-37.020000	24.360000	-104.270000
-36.970000	24.370000	-94.020000
-36.470000	24.460000	-92.640000
-37.270000	24.320000	-85.220000
28.620000	36.380000	-107.380000
28.990000	36.450000	-108.290000
28.800000	36.400000	-109.490000
29.240000	36.490000	-110.970000
29.020000	36.450000	-112.090000
28.870000	36.420000	-117.430000
28.860000	36.410000	-118.990000
28.730000	36.390000	-123.980000
29.010000	36.440000	-133.080000
29.130000	36.490000	-57.290000
28.470000	36.370000	-61.980000
28.710000	36.390000	-120.130000
28.140000	36.270000	-136.530000
28.930000	36.430000	-101.380000
28.540000	36.380000	-69.340000
28.960000	36.440000	-95.700000
28.460000	36.350000	-96.920000
28.440000	36.330000	-140.720000
28.630000	36.380000	-93.160000
28.630000	36.390000	-76.730000
27.910000	36.250000	-78.100000
28.220000	36.310000	-80.700000
28.610000	36.390000	-67.770000
28.440000	36.360000	-66.710000
28.220000	36.320000	-65.450000
28.820000	36.430000	-60.430000
28.610000	36.380000	-90.240000
-36.450000	24.470000	-79.780000
-36.510000	24.470000	-78.540000
-36.770000	24.420000	-75.050000
-36.450000	24.480000	-77.680000
-36.160000	24.540000	-70.230000
28.330000	36.330000	-100.370000
28.760000	36.400000	-99.200000
-36.510000	24.480000	-66.310000
-36.650000	24.410000	-131.780000
28.480000	36.350000	-103.640000
28.400000	36.330000	-110.850000
28.330000	36.320000	-116.400000
28.090000	36.270000	-115.000000
28.440000	36.320000	-135.310000
28.140000	36.310000	-56.310000
27.900000	36.260000	-57.480000
28.270000	36.320000	-129.770000
28.250000	36.330000	-63.480000
27.860000	36.220000	-122.660000
28.700000	36.410000	-64.160000
27.750000	36.210000	-132.039990
28.290000	36.300000	-134.259990
28.070000	36.270000	-106.580000
28.080000	36.280000	-104.850000
27.240000	36.130000	-98.040000
27.980000	36.260000	-95.370000
28.240000	36.310000	-94.260000
28.480000	36.330000	-141.960010
27.960000	36.240000	-142.929990
27.770000	36.220000	-92.220000
28.130000	36.290000	-86.210000
27.790000	36.240000	-75.390000
28.060000	36.290000	-70.860000
27.330000	36.160000	-58.850000
27.930000	36.280000	-55.040000
-36.260000	24.520000	-64.150000
-36.450000	24.470000	-91.210000
-35.960000	24.550000	-103.380000
27.500000	36.170000	-99.510000
27.660000	36.200000	-103.260000
-36.810000	24.390000	-116.890000
27.610000	36.180000	-119.310000
27.310000	36.130000	-117.970000
-36.450000	24.440000	-119.710000
27.920000	36.240000	-120.580000
26.850000	36.040000	-123.950000
28.110000	36.280000	-130.940000
27.650000	36.210000	-128.410000
27.610000	36.210000	-60.760000
27.420000	36.140000	-133.190000
27.570000	36.190000	-112.880000
27.780000	36.220000	-110.310000
27.290000	36.150000	-68.230000
26.890000	36.060000	-105.970000
27.700000	36.190000	-137.660000
27.400000	36.150000	-101.410000
27.930000	36.230000	-138.570010
27.760000	36.200000	-139.410000
27.000000	36.080000	-93.750000
27.740000	36.230000	-74.290000
27.350000	36.130000	-141.380000
26.990000	36.080000	-88.940000
27.070000	36.100000	-90.630000
27.280000	36.140000	-79.380000
26.250000	35.950000	-80.630000
27.340000	36.150000	-81.580000
27.670000	36.210000	-76.720000
26.850000	36.070000	-66.720000
27.750000	36.240000	-64.460000
27.260000	36.140000	-87.080000
26.880000	36.080000	-62.030000
27.150000	36.130000	-57.100000
-36.130000	24.510000	-116.120000
-36.450000	24.460000	-113.900000
-35.970000	24.550000	-112.210000
-36.060000	24.530000	-98.320000
27.510000	36.170000	-107.810000
-36.370000	24.480000	-96.220000
27.400000	36.150000	-109.220000
27.050000	36.090000	-110.970000
27.470000	36.160000	-111.980000
27.190000	36.110000	-114.390000
27.100000	36.090000	-116.000000
27.290000	36.110000	-143.679990
27.600000	36.220000	-53.930000
26.890000	36.040000	-140.120000
27.330000	36.140000	-126.470000
27.510000	36.170000	-127.060000
26.820000	36.050000	-125.780000
27.100000	36.100000	-129.270000
27.310000	36.130000	-130.539990
26.830000	36.070000	-63.560000
27.450000	36.140000	-134.440000
27.240000	36.110000	-135.440000
26.740000	36.020000	-138.640000
27.430000	36.170000	-70.220000
26.480000	35.970000	-137.090000
27.090000	36.100000	-96.610000
26.490000	36.000000	-76.800000
26.970000	36.080000	-85.210000
27.120000	36.110000	-82.950000
27.330000	36.150000	-83.990000
27.280000	36.150000	-72.020000
26.770000	36.060000	-55.710000
26.410000	35.990000	-60.090000
-36.090000	24.530000	-95.170000
-36.240000	24.520000	-73.420000
-36.600000	24.460000	-71.730000
-35.970000	24.570000	-80.520000
-35.690000	24.620000	-82.180000
-36.260000	24.520000	-67.870000
26.520000	35.990000	-104.180000
26.710000	36.030000	-108.350000
26.070000	35.910000	-109.890000
-36.170000	24.530000	-88.890000
26.960000	36.060000	-117.010000
26.700000	36.050000	-53.120000
26.690000	36.010000	-120.370000
26.780000	36.030000	-121.990000
26.730000	36.030000	-127.770000
26.140000	35.920000	-131.090000
25.810000	35.850000	-119.520000
26.700000	36.050000	-65.410000
26.400000	35.950000	-134.429990
26.710000	36.040000	-71.150000
27.100000	36.110000	-73.290000
26.500000	35.990000	-95.440000
26.740000	36.020000	-142.410000
26.270000	35.960000	-73.950000
26.400000	35.980000	-75.750000
25.920000	35.890000	-78.270000
26.000000	35.900000	-83.880000
26.580000	36.010000	-86.200000
26.790000	36.060000	-54.300000
-36.120000	24.500000	-132.590000
-36.280000	24.500000	-100.320000
-36.360000	24.470000	-106.750000
-35.780000	24.590000	-104.260000
-36.060000	24.520000	-124.780000
-35.950000	24.550000	-108.950000
26.200000	35.940000	-99.020000
-35.890000	24.540000	-122.270000
25.930000	35.880000	-100.220000
26.730000	36.030000	-102.880000
26.440000	35.970000	-103.350000
26.360000	35.960000	-107.290000
26.320000	35.960000	-113.290000
-35.740000	24.580000	-128.259990
26.260000	35.940000	-115.180000
26.120000	35.910000	-116.600000
25.570000	35.800000	-121.210000
25.760000	35.880000	-56.140000
25.700000	35.840000	-126.750000
26.200000	35.930000	-129.000000
26.360000	35.960000	-130.080000
26.030000	35.930000	-64.510000
26.060000	35.890000	-132.690000
25.810000	35.860000	-114.090000
25.890000	35.880000	-112.490000
25.900000	35.880000	-111.530000
25.910000	35.870000	-135.890000
26.320000	35.970000	-69.820000
25.850000	35.880000	-71.010000
25.790000	35.860000	-102.230000
25.900000	35.890000	-72.340000
25.880000	35.860000	-141.250000
26.040000	35.910000	-92.050000
25.700000	35.830000	-142.780000
26.020000	35.910000	-87.270000
26.130000	35.930000	-82.410000
25.890000	35.880000	-85.770000
25.190000	35.750000	-89.440000
25.680000	35.860000	-54.960000
25.900000	35.900000	-53.700000
-36.010000	24.540000	-114.810000
25.560000	35.820000	-94.320000
-36.120000	24.520000	-110.770000
25.640000	35.840000	-97.270000
-35.980000	24.550000	-105.190000
-35.510000	24.640000	-90.560000
-35.960000	24.560000	-89.710000
25.720000	35.840000	-101.000000
-36.020000	24.550000	-87.470000
25.410000	35.790000	-106.680000
25.920000	35.880000	-108.330000
-35.190000	24.710000	-74.770000
-35.700000	24.630000	-68.970000
25.820000	35.850000	-117.960000
25.470000	35.790000	-122.440000
25.540000	35.810000	-125.220000
25.740000	35.870000	-57.510000
25.530000	35.830000	-58.530000
25.350000	35.780000	-127.910000
24.420000	35.600000	-129.060000
25.520000	35.830000	-62.940000
25.630000	35.820000	-115.680000
25.460000	35.790000	-134.690000
25.660000	35.850000	-68.900000
25.510000	35.800000	-138.600010
25.660000	35.830000	-104.890000
25.380000	35.770000	-139.910000
25.220000	35.760000	-92.890000
25.360000	35.790000	-74.390000
25.430000	35.800000	-75.580000
24.880000	35.700000	-79.510000
24.710000	35.670000	-83.450000
25.580000	35.820000	-90.590000
25.060000	35.750000	-51.900000
-35.460000	24.660000	-72.530000
-35.710000	24.620000	-76.290000
-35.320000	24.680000	-77.790000
-35.710000	24.610000	-84.710000
-35.590000	24.630000	-86.050000
-35.530000	24.650000	-66.550000
25.410000	35.790000	-103.600000
-35.500000	24.660000	-65.190000
24.820000	35.680000	-102.490000
-35.200000	24.700000	-91.270000
24.900000	35.690000	-113.390000
24.720000	35.660000	-114.640000
25.180000	35.730000	-116.820000
25.040000	35.750000	-53.310000
25.030000	35.710000	-120.330000
25.080000	35.720000	-124.050000
25.030000	35.720000	-130.340000
25.110000	35.750000	-61.460000
24.520000	35.620000	-131.990010
24.670000	35.670000	-64.650000
25.270000	35.750000	-133.610000
25.040000	35.740000	-66.300000
25.520000	35.830000	-67.970000
24.910000	35.690000	-136.980000
24.620000	35.650000	-99.040000
25.040000	35.740000	-69.990000
25.120000	35.740000	-95.880000
25.200000	35.760000	-73.190000
24.510000	35.610000	-140.640000
24.740000	35.670000	-91.960000
24.480000	35.630000	-76.670000
25.040000	35.730000	-88.160000
24.730000	35.670000	-81.580000
24.370000	35.600000	-84.900000
24.730000	35.670000	-86.040000
24.640000	35.670000	-56.050000
-36.050000	24.520000	-130.009990
-35.880000	24.570000	-92.800000
-35.120000	24.710000	-95.500000
-36.340000	24.470000	-126.580000
-35.180000	24.690000	-105.930000
24.580000	35.630000	-105.220000
24.490000	35.620000	-109.070000
24.440000	35.610000	-110.640000
24.120000	35.550000	-112.130000
-35.640000	24.590000	-123.330000
24.510000	35.610000	-115.900000
24.020000	35.520000	-118.090000
24.840000	35.670000	-119.140000
24.680000	35.640000	-142.520000
24.670000	35.680000	-54.430000
24.870000	35.680000	-137.870000
24.670000	35.650000	-125.780000
24.630000	35.670000	-59.980000
24.350000	35.580000	-121.660000
24.300000	35.570000	-135.750000
24.240000	35.580000	-100.560000
24.480000	35.640000	-68.790000
24.280000	35.570000	-139.270000
24.420000	35.600000	-103.830000
24.730000	35.660000	-107.940000
24.160000	35.570000	-94.900000
24.210000	35.580000	-72.120000
24.410000	35.620000	-73.510000
24.140000	35.560000	-87.140000
23.540000	35.460000	-75.260000
24.180000	35.580000	-78.110000
24.350000	35.620000	-57.520000
-35.600000	24.590000	-120.690000
-35.400000	24.640000	-117.470000
24.130000	35.550000	-106.970000
23.610000	35.450000	-116.830000
-35.080000	24.690000	-128.590000
-35.280000	24.670000	-112.930000
23.820000	35.480000	-120.250000
24.140000	35.550000	-123.010000
24.070000	35.540000	-127.310000
23.720000	35.470000	-130.500000
24.010000	35.550000	-63.200000
24.250000	35.600000	-62.140000
23.970000	35.510000	-134.220000
24.390000	35.620000	-67.800000
24.000000	35.520000	-136.800000
24.260000	35.600000	-70.750000
23.710000	35.460000	-138.009990
24.300000	35.590000	-96.300000
24.190000	35.570000	-97.440000
23.760000	35.490000	-92.740000
24.140000	35.560000	-93.630000
24.150000	35.560000	-90.610000
23.710000	35.490000	-82.590000
23.470000	35.450000	-61.510000
23.690000	35.480000	-88.320000
24.220000	35.590000	-58.300000
22.540000	35.270000	-91.200000
23.700000	35.500000	-50.060000
23.960000	35.550000	-51.860000
23.850000	35.510000	-90.000000
-35.030000	24.720000	-114.110000
-35.530000	24.630000	-108.320000
-35.250000	24.680000	-109.830000
-34.780000	24.760000	-110.480000
23.640000	35.460000	-98.510000
-35.660000	24.610000	-102.350000
-35.080000	24.710000	-98.830000
23.480000	35.430000	-105.800000
23.180000	35.380000	-108.570000
-35.130000	24.710000	-94.460000
23.990000	35.520000	-113.390000
23.050000	35.340000	-119.020000
23.340000	35.440000	-53.310000
23.730000	35.510000	-54.510000
23.660000	35.460000	-123.820000
22.840000	35.310000	-126.200000
23.680000	35.470000	-124.830000
23.160000	35.370000	-121.620000
22.950000	35.330000	-115.440000
23.080000	35.350000	-131.660000
23.400000	35.440000	-65.880000
23.160000	35.370000	-132.710010
23.700000	35.500000	-67.130000
23.040000	35.350000	-109.830000
23.630000	35.480000	-69.790000
22.420000	35.260000	-73.520000
23.510000	35.420000	-141.679990
23.540000	35.430000	-142.740010
23.080000	35.380000	-77.230000
23.380000	35.420000	-84.040000
23.290000	35.410000	-85.910000
23.620000	35.470000	-80.070000
22.940000	35.350000	-81.500000
23.340000	35.430000	-68.180000
23.300000	35.420000	-59.180000
23.280000	35.420000	-58.240000
23.160000	35.400000	-55.890000
-35.480000	24.650000	-83.260000
-35.400000	24.670000	-79.050000
23.250000	35.400000	-95.640000
23.390000	35.420000	-93.720000
23.350000	35.420000	-96.670000
-34.940000	24.750000	-79.920000
-35.030000	24.750000	-70.790000
23.780000	35.490000	-100.800000
23.410000	35.420000	-99.950000
23.750000	35.480000	-102.370000
23.390000	35.420000	-103.700000
-34.950000	24.760000	-67.920000
23.480000	35.430000	-104.630000
23.660000	35.470000	-107.080000
-34.590000	24.830000	-66.310000
23.250000	35.390000	-114.030000
23.330000	35.430000	-50.910000
21.940000	35.180000	-52.160000
23.290000	35.380000	-140.330000
22.940000	35.320000	-136.330000
22.490000	35.250000	-122.740000
22.860000	35.350000	-57.290000
23.090000	35.380000	-60.420000
22.960000	35.330000	-128.070010
23.280000	35.420000	-63.500000
22.990000	35.360000	-62.310000
23.060000	35.380000	-64.590000
23.000000	35.340000	-135.390000
22.860000	35.310000	-134.100010
22.550000	35.260000	-113.190000
22.830000	35.310000	-111.060000
22.400000	35.240000	-101.300000
22.470000	35.230000	-136.890000
22.190000	35.210000	-71.480000
22.830000	35.320000	-100.550000
22.980000	35.330000	-139.230000
22.730000	35.280000	-140.850010
22.930000	35.340000	-86.700000
22.710000	35.300000	-89.190000
23.130000	35.390000	-78.650000
22.320000	35.240000	-80.200000
22.740000	35.310000	-84.920000
22.730000	35.310000	-69.530000
22.690000	35.320000	-54.760000
-35.160000	24.680000	-132.149990
22.520000	35.260000	-97.660000
-35.000000	24.750000	-63.770000
-34.500000	24.820000	-93.410000
22.540000	35.260000	-104.490000
22.510000	35.250000	-102.980000
-34.750000	24.750000	-125.270000
22.140000	35.180000	-107.570000
21.970000	35.150000	-114.310000
22.320000	35.210000	-117.800000
22.530000	35.250000	-120.110000
22.470000	35.240000	-123.570000
21.670000	35.100000	-124.620000
22.510000	35.250000	-129.220000
21.920000	35.170000	-58.420000
22.750000	35.290000	-129.770000
22.170000	35.180000	-130.700000
22.550000	35.290000	-65.180000
22.350000	35.220000	-132.730000
21.960000	35.180000	-66.760000
21.850000	35.130000	-106.280000
21.880000	35.120000	-139.820010
22.110000	35.170000	-138.410000
21.960000	35.160000	-95.820000
22.650000	35.280000	-98.960000
22.240000	35.190000	-142.310000
22.620000	35.280000	-94.700000
22.270000	35.220000	-93.020000
22.400000	35.250000	-84.120000
21.800000	35.140000	-78.080000
22.340000	35.240000	-82.730000
22.560000	35.270000	-85.890000
22.090000	35.200000	-63.610000
22.310000	35.230000	-87.930000
21.960000	35.190000	-49.200000
21.590000	35.120000	-50.740000
-34.730000	24.750000	-123.980000
-35.190000	24.680000	-118.990000
22.220000	35.210000	-93.970000
-34.700000	24.780000	-111.970000
-34.360000	24.840000	-109.260000
-34.580000	24.800000	-107.110000
-34.370000	24.840000	-108.230000
22.240000	35.200000	-112.200000
22.230000	35.190000	-116.560000
21.330000	35.070000	-55.270000
22.250000	35.240000	-56.870000
22.360000	35.250000	-59.900000
21.450000	35.050000	-127.440000
21.840000	35.150000	-61.440000
21.680000	35.090000	-128.289990
21.690000	35.100000	-121.160000
21.030000	34.970000	-131.990010
21.670000	35.090000	-134.610000
21.600000	35.110000	-68.430000
21.440000	35.050000	-111.410000
21.650000	35.090000	-110.360000
21.910000	35.140000	-135.649990
21.160000	35.030000	-70.090000
21.080000	35.000000	-102.010000
22.220000	35.220000	-75.740000
21.600000	35.090000	-92.250000
21.730000	35.120000	-88.080000
21.610000	35.100000	-85.260000
21.490000	35.080000	-83.460000
21.270000	35.040000	-86.660000
21.090000	35.000000	-89.480000
21.650000	35.130000	-53.820000
-34.590000	24.800000	-104.510000
21.370000	35.050000	-94.340000
-34.870000	24.750000	-100.030000
20.950000	34.970000	-98.630000
-34.250000	24.860000	-98.620000
-34.500000	24.830000	-90.320000
21.340000	35.040000	-100.100000
-34.400000	24.850000	-85.350000
21.720000	35.110000	-109.040000
21.700000	35.140000	-48.380000
20.640000	34.910000	-117.390000
21.200000	35.010000	-119.440000
21.440000	35.040000	-141.240010
21.340000	35.040000	-122.210000
21.210000	35.010000	-125.930000
21.090000	34.980000	-129.620000
21.250000	35.020000	-133.670000
21.140000	34.980000	-137.610000
20.630000	34.890000	-138.820010
20.820000	34.950000	-96.400000
21.440000	35.040000	-142.289990
21.370000	35.060000	-76.620000
21.260000	35.040000	-81.920000
21.560000	35.100000	-80.760000
21.610000	35.110000	-65.070000
20.670000	34.940000	-64.080000
21.280000	35.050000	-59.850000
21.140000	35.030000	-57.050000
20.640000	34.950000	-47.230000
-34.360000	24.860000	-84.280000
-34.700000	24.800000	-81.290000
-34.080000	24.920000	-61.790000
21.420000	35.060000	-103.520000
21.180000	35.010000	-104.490000
-34.650000	24.810000	-75.090000
21.140000	35.000000	-112.850000
21.210000	35.010000	-115.910000
21.220000	35.020000	-123.290000
20.620000	34.900000	-128.660000
21.350000	35.060000	-62.840000
20.860000	34.970000	-61.760000
20.200000	34.820000	-131.200000
20.280000	34.840000	-109.280000
20.720000	34.910000	-136.090000
20.640000	34.910000	-107.660000
21.150000	35.010000	-97.630000
20.720000	34.940000	-72.910000
20.950000	34.950000	-140.280000
20.870000	34.960000	-93.070000
21.160000	35.030000	-74.890000
20.370000	34.880000	-73.880000
20.690000	34.930000	-91.270000
20.460000	34.890000	-88.050000
20.300000	34.860000	-85.130000
20.890000	34.980000	-79.790000
20.980000	34.990000	-76.900000
21.070000	35.010000	-78.240000
20.890000	34.980000	-81.350000
20.510000	34.910000	-67.390000
20.850000	34.960000	-83.670000
20.640000	34.940000	-58.420000
20.730000	34.960000	-49.410000
20.360000	34.870000	-90.320000
20.490000	34.920000	-48.320000
20.520000	34.900000	-95.010000
-34.580000	24.820000	-72.790000
-33.990000	24.930000	-76.360000
20.190000	34.840000	-97.580000
-34.390000	24.860000	-69.380000
-34.170000	24.900000	-65.040000
20.330000	34.860000	-103.260000
20.030000	34.810000	-105.680000
19.750000	34.740000	-112.230000
-34.330000	24.870000	-62.850000
20.150000	34.810000	-114.080000
-34.950000	24.740000	-97.030000
19.660000	34.730000	-115.600000
-34.820000	24.760000	-103.220000
-34.660000	24.790000	-101.470000
20.160000	34.830000	-121.180000
20.390000	34.860000	-123.440000
20.350000	34.860000	-122.630000
19.780000	34.760000	-124.930000
19.970000	34.810000	-59.490000
20.290000	34.870000	-60.640000
20.200000	34.830000	-126.500000
20.010000	34.820000	-62.970000
20.410000	34.890000	-65.780000
20.510000	34.880000	-134.700000
20.460000	34.870000	-133.539990
20.320000	34.850000	-110.680000
20.410000	34.850000	-137.259990
20.270000	34.850000	-101.530000
20.600000	34.920000	-75.960000
19.410000	34.710000	-76.810000
19.920000	34.800000	-77.960000
20.520000	34.910000	-82.960000
20.220000	34.850000	-79.080000
19.950000	34.810000	-82.050000
19.790000	34.770000	-84.030000
20.130000	34.840000	-69.230000
19.650000	34.750000	-71.080000
20.410000	34.900000	-53.310000
19.600000	34.750000	-52.040000
20.050000	34.810000	-92.140000
-34.270000	24.840000	-120.040000
19.790000	34.760000	-94.160000
-34.680000	24.770000	-126.940000
-33.800000	24.940000	-110.170000
19.920000	34.790000	-100.040000
19.220000	34.690000	-46.440000
20.050000	34.840000	-50.380000
20.390000	34.860000	-119.600000
19.910000	34.810000	-56.010000
19.780000	34.780000	-57.300000
19.830000	34.760000	-128.039990
20.080000	34.840000	-61.540000
19.690000	34.730000	-129.780000
19.640000	34.730000	-118.840000
19.910000	34.800000	-68.390000
19.580000	34.710000	-134.259990
19.780000	34.760000	-104.460000
20.040000	34.820000	-72.120000
19.610000	34.730000	-93.090000
19.600000	34.700000	-139.840000
19.440000	34.700000	-91.610000
19.860000	34.790000	-75.080000
19.830000	34.780000	-86.710000
19.330000	34.700000	-80.230000
20.010000	34.820000	-80.910000
18.910000	34.610000	-83.160000
19.750000	34.790000	-49.360000
-33.970000	24.910000	-106.140000
-34.240000	24.870000	-97.480000
-33.670000	24.970000	-96.590000
19.160000	34.650000	-98.450000
-34.300000	24.860000	-88.770000
-34.340000	24.860000	-87.210000
19.130000	34.630000	-111.200000
19.280000	34.700000	-45.640000
19.090000	34.640000	-120.040000
19.110000	34.660000	-54.300000
19.330000	34.670000	-124.050000
19.110000	34.630000	-122.640000
19.390000	34.670000	-136.460010
-34.480000	24.840000	-82.690000
19.210000	34.630000	-138.070010
19.430000	34.680000	-135.330000
18.960000	34.600000	-132.780000
19.190000	34.650000	-107.880000
19.590000	34.740000	-66.660000
18.850000	34.590000	-109.580000
19.080000	34.640000	-67.570000
18.550000	34.530000	-103.750000
19.330000	34.680000	-102.490000
19.240000	34.660000	-96.710000
19.290000	34.680000	-73.630000
19.310000	34.680000	-88.430000
18.780000	34.590000	-75.330000
18.860000	34.610000	-81.500000
19.370000	34.700000	-79.270000
19.770000	34.770000	-70.060000
18.910000	34.610000	-70.320000
18.910000	34.610000	-85.840000
18.770000	34.590000	-68.950000
18.790000	34.600000	-60.390000
18.900000	34.620000	-62.030000
19.150000	34.660000	-58.540000
19.490000	34.710000	-89.640000
18.760000	34.580000	-90.440000
19.240000	34.690000	-47.550000
19.270000	34.700000	-48.600000
-34.090000	24.910000	-80.390000
19.290000	34.670000	-95.530000
-34.000000	24.930000	-78.830000
-34.190000	24.890000	-77.490000
-33.990000	24.940000	-70.660000
-33.380000	25.030000	-76.600000
-33.790000	24.960000	-82.110000
18.850000	34.590000	-101.400000
-33.830000	24.970000	-68.580000
18.520000	34.530000	-105.400000
19.200000	34.650000	-106.980000
19.070000	34.630000	-117.970000
18.800000	34.610000	-49.420000
18.810000	34.580000	-116.910000
18.660000	34.580000	-50.830000
18.340000	34.490000	-126.330000
19.290000	34.660000	-126.910000
18.360000	34.490000	-127.740000
19.090000	34.630000	-128.550000
18.600000	34.540000	-114.440000
18.700000	34.550000	-130.850010
18.840000	34.610000	-63.690000
18.660000	34.570000	-64.520000
19.010000	34.640000	-65.860000
18.610000	34.530000	-134.660000
18.920000	34.610000	-99.950000
19.000000	34.630000	-72.400000
-33.710000	24.990000	-66.210000
18.390000	34.510000	-89.540000
18.160000	34.470000	-87.060000
18.700000	34.580000	-78.440000
18.490000	34.530000	-84.730000
18.290000	34.500000	-88.220000
18.270000	34.510000	-56.720000
18.210000	34.490000	-57.920000
-33.680000	24.990000	-63.900000
18.160000	34.460000	-91.610000
18.570000	34.540000	-93.630000
-34.180000	24.860000	-129.710010
-33.480000	25.010000	-99.560000
18.130000	34.460000	-102.570000
18.460000	34.520000	-108.740000
18.390000	34.500000	-113.060000
18.630000	34.540000	-115.800000
18.100000	34.450000	-118.880000
18.230000	34.470000	-123.230000
18.330000	34.500000	-121.320000
18.120000	34.440000	-137.170000
-33.500000	25.000000	-100.480000
18.340000	34.520000	-55.990000
18.000000	34.420000	-135.830000
17.780000	34.390000	-125.090000
17.780000	34.410000	-59.180000
18.280000	34.470000	-129.250000
17.950000	34.420000	-112.200000
18.210000	34.490000	-66.630000
18.370000	34.490000	-133.700000
18.290000	34.490000	-100.810000
18.330000	34.500000	-96.030000
18.460000	34.520000	-94.920000
18.310000	34.490000	-92.620000
17.960000	34.440000	-71.980000
17.900000	34.430000	-72.940000
18.210000	34.490000	-76.420000
18.030000	34.460000	-77.610000
18.400000	34.530000	-79.640000
17.710000	34.400000	-80.450000
17.830000	34.420000	-82.160000
17.880000	34.420000	-85.840000
17.800000	34.410000	-69.490000
18.060000	34.460000	-65.850000
18.060000	34.480000	-48.340000
17.660000	34.410000	-46.420000
-34.000000	24.890000	-125.750000
-34.340000	24.840000	-116.010000
17.640000	34.370000	-96.670000
17.860000	34.410000	-99.500000
-34.190000	24.850000	-122.050000
18.200000	34.470000	-106.880000
17.830000	34.400000	-108.010000
-33.920000	24.910000	-118.620000
17.700000	34.380000	-110.470000
17.260000	34.290000	-115.850000
18.260000	34.510000	-51.940000
17.860000	34.430000	-53.330000
18.130000	34.440000	-138.580000
17.680000	34.370000	-122.120000
17.570000	34.380000	-61.650000
17.590000	34.360000	-117.770000
17.370000	34.340000	-63.150000
17.520000	34.340000	-130.520000
17.270000	34.290000	-131.410000
17.750000	34.370000	-134.070010
17.830000	34.410000	-68.250000
17.770000	34.400000	-98.110000
17.910000	34.430000	-70.820000
17.010000	34.250000	-93.520000
-34.310000	24.840000	-131.000000
17.780000	34.410000	-74.290000
-33.670000	24.960000	-114.890000
17.290000	34.320000	-75.600000
17.470000	34.350000	-84.910000
17.170000	34.290000	-83.380000
17.410000	34.350000	-78.740000
17.200000	34.320000	-51.160000
17.470000	34.370000	-49.560000
17.250000	34.300000	-92.270000
17.210000	34.320000	-43.340000
-33.480000	25.000000	-102.290000
17.180000	34.290000	-95.580000
17.410000	34.330000	-94.460000
-33.150000	25.070000	-97.260000
-34.050000	24.910000	-91.840000
-33.330000	25.040000	-87.480000
-33.430000	25.030000	-85.590000
-33.550000	25.010000	-83.370000
17.520000	34.350000	-109.180000
17.400000	34.320000	-114.130000
17.840000	34.410000	-120.150000
17.310000	34.310000	-121.070000
16.230000	34.130000	-52.450000
17.220000	34.320000	-54.690000
17.040000	34.250000	-123.480000
17.200000	34.270000	-133.130000
17.340000	34.330000	-56.920000
17.200000	34.310000	-58.120000
17.000000	34.240000	-126.830000
17.290000	34.320000	-60.290000
17.260000	34.290000	-128.240010
16.870000	34.220000	-129.170000
16.850000	34.250000	-64.220000
17.020000	34.270000	-65.360000
17.100000	34.250000	-134.660000
16.840000	34.220000	-105.980000
16.980000	34.250000	-107.330000
17.260000	34.300000	-99.110000
-33.220000	25.070000	-77.630000
17.370000	34.320000	-90.640000
17.370000	34.320000	-89.120000
-33.890000	24.950000	-74.120000
17.350000	34.330000	-77.030000
16.720000	34.220000	-78.070000
17.040000	34.270000	-71.660000
16.690000	34.200000	-85.810000
17.460000	34.340000	-88.060000
17.200000	34.320000	-44.480000
-33.110000	25.090000	-73.440000
16.980000	34.250000	-101.900000
16.360000	34.140000	-100.410000
-33.090000	25.100000	-71.140000
17.040000	34.260000	-104.460000
17.060000	34.260000	-108.510000
16.970000	34.240000	-111.180000
16.970000	34.240000	-113.080000
16.870000	34.220000	-112.260000
17.070000	34.250000	-115.320000
16.890000	34.230000	-119.170000
17.130000	34.300000	-55.960000
16.620000	34.160000	-135.410000
16.490000	34.140000	-132.399990
17.000000	34.260000	-66.960000
16.680000	34.200000	-97.640000
16.730000	34.180000	-136.740010
16.620000	34.190000	-69.120000
16.180000	34.110000	-70.600000
16.390000	34.150000	-73.310000
16.150000	34.100000	-87.680000
16.560000	34.190000	-76.660000
16.540000	34.190000	-79.380000
16.210000	34.120000	-80.230000
16.560000	34.180000	-81.740000
16.340000	34.140000	-84.170000
16.390000	34.160000	-62.050000
15.970000	34.070000	-88.780000
16.010000	34.090000	-55.310000
15.960000	34.090000	-50.720000
16.380000	34.140000	-90.150000
16.300000	34.150000	-53.950000
16.480000	34.190000	-48.280000
-33.700000	24.990000	-67.220000
-33.340000	25.050000	-81.240000
16.830000	34.220000	-103.180000
16.530000	34.170000	-109.630000
16.150000	34.130000	-42.510000
15.670000	34.010000	-111.670000
16.490000	34.160000	-110.330000
16.350000	34.120000	-114.390000
16.330000	34.120000	-115.870000
16.380000	34.130000	-116.990000
-33.240000	25.060000	-84.300000
16.270000	34.120000	-120.480000
16.330000	34.130000	-121.530000
16.090000	34.080000	-122.780000
15.970000	34.090000	-57.070000
-33.830000	24.950000	-94.930000
16.360000	34.120000	-124.950000
16.250000	34.100000	-126.080000
15.730000	34.000000	-127.850000
16.040000	34.100000	-59.060000
16.170000	34.120000	-60.900000
15.880000	34.030000	-130.539990
15.740000	34.010000	-133.410000
16.110000	34.100000	-66.380000
15.890000	34.050000	-106.820000
15.330000	33.950000	-108.330000
16.510000	34.170000	-67.630000
16.110000	34.100000	-98.520000
15.990000	34.070000	-96.550000
15.880000	34.050000	-95.210000
-33.320000	25.040000	-92.960000
16.210000	34.110000	-94.590000
16.200000	34.110000	-92.640000
16.240000	34.110000	-91.300000
15.820000	34.050000	-75.150000
15.780000	34.040000	-83.030000
15.640000	34.020000	-72.200000
15.490000	33.990000	-73.530000
15.660000	34.020000	-63.350000
16.090000	34.120000	-47.160000
16.080000	34.120000	-44.410000
15.950000	34.090000	-45.480000
-33.440000	24.990000	-124.600000
-32.850000	25.100000	-130.230000
-33.600000	24.970000	-113.250000
15.320000	33.950000	-104.570000
15.360000	33.950000	-105.840000
16.000000	34.060000	-113.040000
16.250000	34.110000	-118.070000
-33.210000	25.050000	-107.440000
-33.130000	25.070000	-101.280000
15.920000	34.030000	-134.539990
15.900000	34.040000	-123.880000
15.740000	34.010000	-131.289990
14.800000	33.870000	-59.760000
15.610000	33.980000	-129.130000
15.800000	34.030000	-118.880000
15.440000	33.960000	-117.520000
15.900000	34.060000	-103.780000
15.690000	34.020000	-102.710000
15.580000	34.010000	-64.790000
-33.440000	25.020000	-90.510000
15.430000	33.970000	-101.880000
15.740000	34.030000	-68.230000
-33.190000	25.070000	-75.400000
15.240000	33.930000	-93.660000
15.730000	34.030000	-76.110000
15.690000	34.020000	-86.420000
15.530000	33.990000	-85.570000
-32.550000	25.190000	-74.290000
15.850000	34.060000	-77.490000
15.380000	33.970000	-79.570000
15.520000	33.990000	-78.290000
14.620000	33.820000	-84.180000
15.130000	33.940000	-43.710000
-32.820000	25.140000	-82.210000
-32.690000	25.170000	-68.010000
-32.570000	25.200000	-66.800000
15.610000	34.000000	-110.180000
15.170000	33.910000	-113.980000
15.340000	33.930000	-114.960000
15.140000	33.900000	-116.450000
15.300000	33.970000	-49.200000
14.430000	33.810000	-50.040000
15.090000	33.900000	-120.840000
15.410000	33.960000	-119.770000
15.320000	33.940000	-121.810000
15.130000	33.930000	-53.770000
14.950000	33.870000	-122.940000
14.850000	33.840000	-125.190000
15.160000	33.900000	-126.600000
15.250000	33.950000	-61.350000
15.130000	33.920000	-66.020000
14.420000	33.770000	-130.870000
15.340000	33.940000	-132.210010
15.670000	34.020000	-67.070000
14.640000	33.800000	-133.830000
15.540000	34.000000	-69.210000
14.410000	33.780000	-102.160000
15.070000	33.900000	-97.750000
14.840000	33.870000	-99.290000
15.510000	33.980000	-92.100000
14.430000	33.790000	-71.050000
15.170000	33.930000	-70.090000
15.040000	33.890000	-91.190000
15.490000	33.980000	-82.050000
15.320000	33.960000	-80.880000
14.850000	33.870000	-77.400000
14.440000	33.800000	-76.270000
14.840000	33.880000	-56.210000
15.170000	33.940000	-54.600000
14.770000	33.850000	-87.010000
14.560000	33.840000	-46.660000
15.280000	33.970000	-44.570000
14.830000	33.890000	-48.510000
14.590000	33.820000	-92.980000
-32.630000	25.170000	-91.920000
15.140000	33.940000	-42.250000
14.590000	33.820000	-95.930000
-33.190000	25.080000	-61.460000
-32.760000	25.140000	-96.020000
-32.960000	25.080000	-126.560000
14.370000	33.780000	-100.530000
14.760000	33.850000	-103.590000
14.260000	33.780000	-41.480000
14.030000	33.710000	-111.260000
14.410000	33.810000	-45.130000
14.820000	33.840000	-113.010000
14.810000	33.840000	-115.330000
14.750000	33.840000	-118.690000
14.300000	33.750000	-117.420000
14.080000	33.720000	-119.850000
14.310000	33.750000	-123.890000
14.590000	33.830000	-57.830000
14.390000	33.790000	-62.510000
14.030000	33.690000	-128.440000
14.440000	33.770000	-129.539990
14.440000	33.800000	-65.470000
14.190000	33.750000	-67.260000
14.550000	33.800000	-109.340000
-32.960000	25.080000	-122.120000
14.850000	33.870000	-68.920000
-33.130000	25.050000	-123.490000
-32.740000	25.120000	-119.220000
14.510000	33.810000	-72.540000
14.450000	33.800000	-88.000000
14.440000	33.790000	-89.740000
14.530000	33.820000	-74.920000
14.370000	33.780000	-78.570000
14.070000	33.730000	-80.100000
14.130000	33.740000	-81.620000
14.670000	33.830000	-82.450000
14.100000	33.750000	-54.650000
14.530000	33.820000	-51.790000
13.730000	33.690000	-40.250000
14.140000	33.740000	-94.700000
14.030000	33.700000	-106.930000
14.310000	33.760000	-105.700000
14.190000	33.720000	-114.450000
13.790000	33.650000	-116.410000
14.030000	33.730000	-51.110000
-33.420000	25.000000	-128.190000
14.200000	33.760000	-52.670000
14.020000	33.710000	-121.570000
-32.900000	25.100000	-115.710000
-32.900000	25.100000	-117.480000
14.290000	33.740000	-132.370000
13.840000	33.670000	-122.950000
13.750000	33.640000	-125.200000
14.100000	33.700000	-126.060000
13.850000	33.660000	-127.390000
13.530000	33.630000	-64.020000
-32.960000	25.090000	-108.820000
13.930000	33.700000	-69.770000
13.910000	33.690000	-97.060000
14.160000	33.750000	-73.630000
14.080000	33.720000	-91.440000
13.630000	33.640000	-77.640000
13.530000	33.630000	-75.730000
13.560000	33.630000	-83.000000
13.620000	33.640000	-85.510000
13.510000	33.630000	-68.460000
13.310000	33.590000	-61.020000
13.800000	33.680000	-86.900000
13.820000	33.690000	-58.410000
12.820000	33.500000	-88.550000
13.910000	33.720000	-48.060000
14.180000	33.770000	-42.530000
13.520000	33.650000	-43.960000
-32.680000	25.150000	-106.100000
-33.100000	25.070000	-104.900000
12.900000	33.510000	-93.850000
-32.950000	25.100000	-103.770000
-32.470000	25.190000	-96.880000
13.550000	33.620000	-99.110000
13.390000	33.590000	-104.540000
13.270000	33.560000	-109.820000
13.910000	33.680000	-113.110000
13.430000	33.590000	-118.480000
13.340000	33.610000	-52.140000
13.520000	33.630000	-59.540000
13.550000	33.610000	-129.530000
13.560000	33.610000	-131.750000
13.450000	33.590000	-132.580000
13.450000	33.600000	-108.470000
13.410000	33.590000	-105.990000
13.710000	33.650000	-103.410000
13.050000	33.530000	-102.080000
13.810000	33.680000	-95.560000
-32.380000	25.220000	-81.610000
12.910000	33.510000	-92.250000
13.920000	33.700000	-72.290000
12.850000	33.510000	-73.370000
13.620000	33.650000	-74.420000
-32.630000	25.180000	-80.710000
12.960000	33.520000	-78.570000
12.910000	33.510000	-80.430000
13.090000	33.540000	-65.050000
13.710000	33.670000	-56.850000
12.810000	33.490000	-86.150000
13.090000	33.560000	-53.810000
12.990000	33.530000	-90.380000
13.400000	33.620000	-49.520000
13.100000	33.570000	-45.440000
12.960000	33.540000	-42.470000
-32.550000	25.190000	-78.240000
-32.730000	25.170000	-62.890000
-32.220000	25.250000	-75.340000
12.580000	33.440000	-103.720000
-32.110000	25.280000	-63.960000
13.260000	33.560000	-114.330000
13.300000	33.560000	-115.540000
12.680000	33.450000	-117.300000
12.760000	33.470000	-119.560000
13.340000	33.590000	-120.480000
12.910000	33.530000	-56.190000
13.100000	33.530000	-123.440000
12.940000	33.530000	-57.630000
13.180000	33.570000	-59.030000
12.510000	33.410000	-126.210000
13.210000	33.570000	-62.690000
12.890000	33.490000	-112.520000
13.000000	33.510000	-130.800000
13.050000	33.540000	-66.290000
-32.880000	25.140000	-64.870000
-32.920000	25.130000	-69.580000
12.740000	33.480000	-96.690000
12.900000	33.510000	-69.400000
12.620000	33.460000	-94.920000
12.740000	33.480000	-71.640000
12.670000	33.470000	-74.920000
-32.250000	25.240000	-76.820000
12.640000	33.460000	-77.120000
12.460000	33.440000	-67.730000
12.930000	33.510000	-84.230000
12.780000	33.510000	-55.000000
12.320000	33.420000	-51.020000
12.880000	33.530000	-47.020000
12.600000	33.480000	-48.540000
12.570000	33.470000	-43.340000
12.780000	33.510000	-41.390000
-32.240000	25.250000	-70.820000
12.700000	33.470000	-98.630000
12.410000	33.410000	-100.370000
12.900000	33.490000	-113.520000
11.990000	33.330000	-121.830000
12.710000	33.460000	-122.570000
12.460000	33.410000	-124.580000
11.770000	33.280000	-125.610000
12.520000	33.420000	-128.450000
12.360000	33.390000	-130.050000
12.380000	33.400000	-115.990000
12.040000	33.330000	-131.450000
12.040000	33.360000	-63.390000
