2.710000	31.660000	-57.780000
2.300000	31.590000	-59.620000
2.430000	31.580000	-110.010000
2.620000	31.640000	-62.630000
2.060000	31.520000	-106.560000
2.050000	31.500000	-130.490010
2.530000	31.600000	-108.390000
2.130000	31.510000	-134.100010
2.490000	31.600000	-97.880000
2.550000	31.610000	-95.660000
1.910000	31.490000	-99.910000
1.880000	31.460000	-137.039990
2.710000	31.610000	-138.100010
2.350000	31.580000	-92.380000
1.830000	31.490000	-71.100000
2.080000	31.530000	-72.640000
2.470000	31.600000	-84.770000
1.870000	31.450000	-141.990010
2.230000	31.520000	-140.910000
1.770000	31.480000	-74.860000
1.690000	31.420000	-143.360000
2.670000	31.640000	-88.240000
2.060000	31.520000	-86.830000
2.500000	31.620000	-49.970000
1.950000	31.520000	-51.010000
2.170000	31.560000	-46.580000
2.120000	31.550000	-48.450000
1.660000	31.480000	-31.500000
1.870000	31.590000	-36.280000
2.190000	31.530000	-112.000000
1.690000	31.440000	-114.740000
1.400000	31.380000	-122.290000
1.620000	31.420000	-125.620000
2.220000	31.530000	-118.140000
1.840000	31.500000	-58.790000
2.240000	31.530000	-127.060000
1.860000	31.460000	-129.310000
1.580000	31.410000	-128.100010
1.830000	31.460000	-131.490010
2.150000	31.550000	-65.350000
1.890000	31.500000	-66.280000
1.650000	31.430000	-132.770000
1.240000	31.370000	-101.480000
1.850000	31.500000	-68.330000
1.470000	31.390000	-135.200000
2.140000	31.550000	-69.540000
1.770000	31.470000	-97.420000
1.660000	31.420000	-138.820010
2.200000	31.550000	-89.610000
1.520000	31.420000	-85.610000
1.130000	31.350000	-83.440000
1.400000	31.420000	-53.360000
2.050000	31.540000	-51.920000
1.730000	31.460000	-88.640000
1.620000	31.530000	-39.090000
1.690000	31.480000	-44.510000
1.920000	31.600000	-37.480000
1.570000	31.490000	-41.780000
1.390000	31.400000	-90.800000
1.560000	31.430000	-93.550000
1.700000	31.490000	-32.710000
1.590000	31.430000	-98.610000
1.170000	31.350000	-100.310000
1.240000	31.360000	-105.160000
1.750000	31.460000	-107.840000
2.010000	31.500000	-108.900000
1.280000	31.360000	-116.150000
1.020000	31.310000	-117.660000
1.430000	31.430000	-49.300000
1.020000	31.310000	-119.290000
1.040000	31.310000	-120.910000
1.660000	31.470000	-54.850000
0.970000	31.290000	-129.039990
1.160000	31.380000	-56.660000
1.690000	31.480000	-57.750000
1.410000	31.380000	-126.830000
0.850000	31.320000	-60.390000
1.420000	31.420000	-62.060000
1.260000	31.360000	-110.760000
1.210000	31.380000	-64.730000
1.080000	31.330000	-103.060000
1.310000	31.400000	-67.070000
1.680000	31.450000	-94.690000
1.220000	31.370000	-96.330000
1.190000	31.370000	-69.730000
1.470000	31.410000	-92.100000
1.090000	31.310000	-140.020000
1.300000	31.380000	-89.450000
1.330000	31.350000	-140.980000
1.030000	31.340000	-80.340000
0.980000	31.330000	-78.070000
0.710000	31.270000	-82.730000
0.840000	31.320000	-51.480000
1.320000	31.410000	-50.160000
0.740000	31.300000	-45.810000
1.260000	31.450000	-40.870000
1.250000	31.430000	-35.150000
1.190000	31.410000	-33.850000
1.340000	31.380000	-109.610000
1.080000	31.370000	-42.850000
0.880000	31.290000	-111.730000
1.010000	31.320000	-112.830000
0.710000	31.250000	-124.600000
0.760000	31.260000	-123.400000
0.510000	31.230000	-114.290000
1.020000	31.340000	-63.410000
0.390000	31.200000	-108.710000
0.520000	31.210000	-129.980000
0.530000	31.230000	-107.160000
0.710000	31.250000	-131.429990
0.280000	31.210000	-68.040000
1.070000	31.310000	-133.929990
0.440000	31.200000	-136.259990
0.140000	31.180000	-72.390000
0.780000	31.300000	-73.890000
0.730000	31.280000	-81.240000
0.560000	31.270000	-48.840000
0.320000	31.210000	-88.350000
0.620000	31.280000	-46.750000
0.960000	31.340000	-47.670000
0.300000	31.290000	-38.130000
0.960000	31.380000	-41.780000
0.550000	31.330000	-36.970000
0.390000	31.210000	-94.520000
0.350000	31.240000	-31.630000
0.950000	31.320000	-99.170000
0.620000	31.300000	-32.730000
0.330000	31.310000	-39.480000
0.480000	31.210000	-132.960010
0.430000	31.250000	-55.560000
0.760000	31.300000	-58.400000
0.690000	31.250000	-126.260000
-0.260000	31.070000	-125.700000
0.320000	31.180000	-127.860000
0.550000	31.260000	-62.380000
-0.230000	31.110000	-64.600000
0.520000	31.250000	-66.150000
0.160000	31.170000	-103.820000
-0.100000	31.100000	-134.399990
0.130000	31.170000	-98.760000
0.150000	31.170000	-97.720000
0.070000	31.150000	-92.880000
0.090000	31.170000	-70.630000
0.440000	31.200000	-137.730000
0.510000	31.210000	-139.120000
0.460000	31.230000	-91.710000
0.320000	31.200000	-87.300000
0.170000	31.180000	-89.540000
0.290000	31.160000	-140.429990
0.430000	31.190000	-142.179990
0.580000	31.260000	-75.910000
0.410000	31.230000	-66.900000
0.050000	31.150000	-84.350000
0.340000	31.230000	-52.930000
0.160000	31.190000	-54.300000
0.340000	31.230000	-50.020000
0.210000	31.220000	-43.380000
-0.030000	31.190000	-35.470000
0.370000	31.260000	-33.990000
-0.150000	31.110000	-102.230000
0.120000	31.260000	-41.060000
-0.320000	31.070000	-110.450000
0.140000	31.230000	-41.970000
-0.030000	31.130000	-115.820000
-0.590000	31.020000	-118.000000
-0.260000	31.120000	-51.310000
-0.750000	30.980000	-124.230000
-0.190000	31.090000	-122.640000
0.080000	31.170000	-57.920000
-0.360000	31.050000	-126.580000
-0.310000	31.100000	-59.060000
-0.440000	31.040000	-129.080000
-0.310000	31.100000	-62.760000
-0.170000	31.100000	-106.060000
-0.180000	31.110000	-99.920000
-0.730000	31.010000	-90.030000
-0.620000	31.000000	-138.450000
-0.410000	31.040000	-139.899990
-0.630000	30.990000	-141.480000
-1.020000	30.970000	-75.030000
-0.290000	31.090000	-85.700000
-0.320000	31.090000	-82.920000
-0.120000	31.130000	-79.740000
-0.630000	31.040000	-76.650000
-0.740000	31.020000	-67.660000
-0.220000	31.110000	-80.730000
-0.130000	31.140000	-56.740000
-0.460000	31.090000	-49.800000
0.030000	31.180000	-44.600000
-0.330000	31.110000	-47.850000
-0.910000	31.010000	-46.280000
-0.210000	31.110000	-91.050000
-0.700000	31.050000	-32.730000
-0.150000	31.110000	-95.640000
-0.740000	31.050000	-31.830000
-0.690000	31.100000	-37.490000
-0.240000	31.090000	-100.780000
-0.790000	31.100000	-40.130000
-1.030000	30.940000	-106.810000
-0.450000	31.050000	-112.070000
-0.060000	31.120000	-112.740000
-0.030000	31.130000	-116.740000
-1.300000	30.900000	-116.060000
-0.940000	30.970000	-117.340000
-0.340000	31.060000	-119.940000
-0.630000	31.000000	-132.509990
-0.240000	31.080000	-121.180000
-0.510000	31.070000	-55.310000
-1.320000	30.920000	-57.690000
-0.740000	30.980000	-127.560000
-0.250000	31.110000	-61.690000
-0.850000	30.960000	-130.980000
-0.690000	31.030000	-60.340000
-0.990000	30.950000	-107.750000
-1.030000	30.940000	-104.640000
-0.710000	31.010000	-98.790000
-0.310000	31.080000	-96.540000
-0.760000	31.010000	-66.250000
-0.740000	31.000000	-95.230000
-0.220000	31.120000	-69.250000
-1.080000	30.920000	-137.030000
-0.790000	31.010000	-71.230000
-0.630000	31.050000	-73.460000
-0.760000	31.000000	-81.460000
-0.620000	31.040000	-78.240000
-1.600000	30.860000	-72.460000
-1.300000	30.920000	-56.110000
-1.080000	30.960000	-52.940000
-1.460000	30.880000	-88.390000
-0.820000	31.100000	-39.050000
-1.160000	30.980000	-43.930000
-1.020000	30.980000	-45.170000
-0.830000	31.060000	-42.660000
-1.500000	30.970000	-41.350000
-0.790000	31.000000	-91.600000
-0.410000	31.130000	-36.500000
-0.890000	30.970000	-96.390000
-0.900000	31.020000	-33.930000
-1.440000	30.930000	-35.810000
-1.660000	30.900000	-36.960000
-1.100000	30.930000	-109.270000
-0.710000	31.010000	-114.380000
-1.020000	30.940000	-112.850000
-1.020000	30.980000	-48.840000
-1.490000	30.850000	-133.740010
-1.390000	30.870000	-119.680000
-1.280000	30.890000	-120.590000
-1.350000	30.880000	-122.070000
-0.880000	31.000000	-54.490000
-1.490000	30.880000	-61.460000
-1.210000	30.910000	-102.960000
-1.660000	30.850000	-63.300000
-1.110000	30.910000	-135.660000
-1.810000	30.820000	-64.620000
-0.970000	30.970000	-97.510000
-0.950000	30.980000	-68.600000
-0.930000	30.970000	-92.750000
-1.120000	30.930000	-94.040000
-1.440000	30.890000	-69.980000
-1.290000	30.910000	-86.620000
-1.280000	30.910000	-84.950000
-1.290000	30.910000	-83.690000
-1.500000	30.890000	-73.870000
-1.050000	30.920000	-142.840000
-1.060000	30.960000	-79.960000
-1.340000	30.920000	-51.340000
-2.060000	30.780000	-53.940000
-1.400000	30.910000	-47.610000
-2.430000	30.700000	-93.180000
-1.670000	30.830000	-100.970000
-1.190000	30.920000	-99.930000
-1.200000	30.910000	-101.940000
-1.830000	30.890000	-38.060000
-1.330000	30.890000	-105.500000
-1.550000	30.850000	-111.880000
-1.950000	30.750000	-140.620000
-1.500000	30.840000	-134.880000
-1.390000	30.860000	-129.950000
-1.620000	30.870000	-55.190000
-1.970000	30.750000	-127.870000
-1.680000	30.820000	-123.510000
-1.810000	30.790000	-125.330000
-1.380000	30.860000	-126.620000
-1.850000	30.820000	-59.160000
-1.700000	30.800000	-129.130000
-1.690000	30.810000	-131.450000
-1.770000	30.800000	-133.009990
-2.020000	30.760000	-105.970000
-1.900000	30.780000	-110.200000
-2.210000	30.750000	-66.300000
-1.750000	30.820000	-98.710000
-2.560000	30.670000	-95.090000
-1.720000	30.830000	-96.670000
-1.830000	30.810000	-92.080000
-2.520000	30.680000	-85.740000
-1.940000	30.750000	-139.500000
-1.820000	30.810000	-82.690000
-2.130000	30.720000	-141.880000
-1.980000	30.800000	-76.410000
-2.090000	30.780000	-77.850000
-2.470000	30.690000	-81.060000
-2.090000	30.770000	-68.360000
-2.350000	30.730000	-71.400000
-2.580000	30.680000	-79.390000
-2.490000	30.720000	-50.000000
-2.270000	30.760000	-48.410000
-1.710000	30.920000	-39.100000
-2.290000	30.730000	-89.430000
-2.220000	30.840000	-39.990000
-2.040000	30.770000	-90.760000
-1.670000	30.870000	-33.420000
-2.040000	30.810000	-34.910000
-2.560000	30.710000	-32.340000
-2.310000	30.710000	-103.640000
-2.390000	30.690000	-107.230000
-1.850000	30.790000	-108.870000
-1.800000	30.910000	-42.540000
-2.150000	30.740000	-113.430000
-2.220000	30.700000	-143.230000
-2.020000	30.740000	-138.429990
-2.410000	30.690000	-116.880000
-2.000000	30.760000	-118.610000
-2.130000	30.780000	-51.620000
-2.210000	30.720000	-123.980000
-2.980000	30.580000	-122.570000
-2.550000	30.650000	-126.230000
-2.170000	30.720000	-127.520000
-2.760000	30.610000	-130.399990
-2.760000	30.630000	-102.390000
-2.390000	30.690000	-101.650000
-3.120000	30.550000	-134.210010
-2.150000	30.720000	-135.910000
-2.290000	30.740000	-60.330000
-2.990000	30.610000	-56.950000
-2.430000	30.700000	-87.430000
-2.370000	30.740000	-46.410000
-2.070000	30.810000	-44.550000
-2.390000	30.780000	-43.540000
-2.600000	30.700000	-33.740000
-2.250000	30.730000	-97.580000
-2.560000	30.670000	-104.930000
-3.170000	30.550000	-108.980000
-2.920000	30.710000	-42.200000
-2.600000	30.650000	-110.950000
-2.220000	30.730000	-115.050000
-3.050000	30.570000	-119.640000
-2.860000	30.600000	-132.250000
-2.310000	30.690000	-137.170000
-2.720000	30.630000	-120.850000
-2.700000	30.670000	-55.460000
-2.600000	30.680000	-58.280000
-2.980000	30.580000	-124.970000
-2.760000	30.650000	-61.770000
-3.400000	30.490000	-128.810000
-2.690000	30.640000	-99.870000
-3.690000	30.440000	-136.190000
-2.700000	30.640000	-96.260000
-3.830000	30.450000	-66.600000
-2.740000	30.640000	-91.510000
-3.390000	30.490000	-137.670000
-3.320000	30.500000	-139.160000
-2.600000	30.660000	-84.030000
-2.730000	30.660000	-73.420000
-2.660000	30.670000	-74.330000
-2.740000	30.660000	-77.390000
-2.730000	30.660000	-75.380000
-2.850000	30.640000	-72.530000
-3.430000	30.520000	-78.740000
-2.690000	30.660000	-69.470000
-3.670000	30.470000	-82.310000
-2.980000	30.620000	-52.470000
-3.180000	30.620000	-44.800000
-2.540000	30.760000	-38.920000
-2.800000	30.630000	-89.940000
-3.120000	30.680000	-41.110000
-3.170000	30.610000	-37.020000
-2.740000	30.680000	-36.160000
-2.840000	30.620000	-98.300000
-3.220000	30.540000	-100.520000
-3.840000	30.480000	-34.510000
-3.030000	30.580000	-102.970000
-3.080000	30.570000	-112.400000
-3.080000	30.570000	-113.830000
-3.250000	30.540000	-115.270000
-3.140000	30.600000	-50.710000
-2.950000	30.590000	-118.600000
-3.750000	30.430000	-123.870000
-3.010000	30.610000	-59.360000
-3.030000	30.560000	-127.200000
-3.550000	30.510000	-60.900000
-3.340000	30.530000	-105.640000
-3.280000	30.560000	-62.880000
-3.290000	30.550000	-64.130000
-3.440000	30.520000	-65.460000
-3.470000	30.500000	-97.260000
-3.260000	30.550000	-90.700000
-3.500000	30.510000	-68.450000
-3.600000	30.490000	-91.810000
-2.850000	30.630000	-70.400000
-3.060000	30.590000	-88.170000
-3.680000	30.470000	-86.420000
-3.160000	30.530000	-141.259990
-4.090000	30.370000	-140.009990
-3.460000	30.520000	-74.690000
-3.760000	30.470000	-76.340000
-3.570000	30.460000	-142.910000
-3.550000	30.490000	-84.670000
-3.410000	30.540000	-53.940000
-3.390000	30.550000	-48.720000
-3.550000	30.590000	-40.200000
-3.150000	30.570000	-88.430000
-3.370000	30.600000	-39.310000
-3.920000	30.470000	-46.360000
-3.740000	30.510000	-38.130000
-3.530000	30.530000	-35.730000
-4.140000	30.420000	-33.490000
-3.340000	30.520000	-98.900000
-3.570000	30.470000	-101.500000
-3.470000	30.490000	-104.120000
-4.430000	30.320000	-107.520000
-4.060000	30.480000	-43.390000
-3.760000	30.440000	-110.520000
-3.330000	30.520000	-111.570000
-3.490000	30.530000	-47.390000
-3.690000	30.440000	-141.980000
-4.180000	30.410000	-49.920000
-3.550000	30.490000	-116.600000
-4.100000	30.380000	-118.590000
-4.250000	30.350000	-121.460000
-3.790000	30.470000	-58.190000
-4.110000	30.370000	-125.220000
-4.120000	30.380000	-114.520000
-3.670000	30.450000	-127.100000
-3.910000	30.410000	-131.380000
-3.780000	30.430000	-132.580000
-4.480000	30.340000	-69.620000
-3.930000	30.420000	-93.680000
-3.600000	30.490000	-70.990000
-4.100000	30.390000	-89.530000
-4.190000	30.390000	-72.000000
-4.100000	30.410000	-72.880000
-3.690000	30.480000	-73.540000
-4.430000	30.300000	-141.360000
-4.880000	30.260000	-77.560000
-4.170000	30.380000	-80.380000
-4.920000	30.260000	-57.390000
-4.090000	30.410000	-59.690000
-4.330000	30.350000	-83.850000
-4.580000	30.340000	-37.530000
-4.440000	30.370000	-31.850000
-3.810000	30.440000	-96.260000
-3.880000	30.420000	-102.600000
-4.250000	30.350000	-103.620000
-4.540000	30.350000	-36.110000
-4.370000	30.450000	-41.870000
-4.530000	30.390000	-44.640000
-4.290000	30.350000	-112.710000
-4.040000	30.430000	-51.460000
-4.180000	30.360000	-119.950000
-4.170000	30.400000	-54.680000
-4.820000	30.240000	-122.470000
-4.080000	30.410000	-56.050000
-4.440000	30.310000	-128.649990
-4.460000	30.310000	-130.370000
-4.330000	30.370000	-62.080000
-4.510000	30.330000	-63.560000
-4.880000	30.270000	-64.860000
-4.050000	30.390000	-99.600000
-4.620000	30.290000	-101.230000
-4.740000	30.250000	-134.440000
-4.250000	30.360000	-95.230000
-4.770000	30.260000	-97.070000
-4.610000	30.300000	-87.110000
-4.840000	30.260000	-90.810000
-4.460000	30.300000	-138.710010
-4.870000	30.250000	-85.270000
-4.590000	30.320000	-74.040000
-4.980000	30.240000	-79.290000
-4.490000	30.350000	-48.860000
-4.340000	30.370000	-53.090000
-4.430000	30.360000	-47.740000
-4.380000	30.420000	-40.880000
-4.530000	30.360000	-38.760000
-4.630000	30.290000	-92.370000
-4.380000	30.330000	-98.690000
-4.690000	30.280000	-105.470000
-4.450000	30.320000	-109.610000
-4.710000	30.270000	-111.000000
-4.860000	30.240000	-115.640000
-4.680000	30.260000	-142.429990
-4.660000	30.280000	-117.180000
-4.670000	30.260000	-133.330000
-4.910000	30.270000	-52.280000
-5.090000	30.180000	-135.679990
-5.610000	30.090000	-124.900000
-4.950000	30.250000	-58.820000
-5.190000	30.170000	-126.770000
-4.660000	30.310000	-61.180000
-5.100000	30.200000	-114.250000
-4.840000	30.240000	-110.370000
-5.760000	30.070000	-129.750000
-5.370000	30.140000	-131.800000
-5.300000	30.190000	-62.550000
-5.390000	30.150000	-99.730000
-4.820000	30.270000	-67.870000
-5.010000	30.200000	-137.210010
-5.140000	30.220000	-71.270000
-5.110000	30.210000	-88.510000
-5.760000	30.060000	-141.980000
-4.650000	30.310000	-74.930000
-5.010000	30.240000	-75.850000
-5.190000	30.210000	-60.160000
-5.050000	30.210000	-83.010000
-5.410000	30.150000	-84.100000
-5.120000	30.210000	-86.160000
-5.120000	30.230000	-54.900000
-5.410000	30.180000	-51.270000
-4.920000	30.310000	-39.880000
-6.050000	30.030000	-93.410000
-4.900000	30.280000	-36.420000
-5.190000	30.190000	-95.020000
-5.320000	30.210000	-31.250000
-5.280000	30.170000	-98.380000
-5.060000	30.210000	-102.980000
-5.140000	30.240000	-35.060000
-5.680000	30.100000	-103.750000
-5.710000	30.090000	-113.020000
-5.660000	30.130000	-48.190000
-5.480000	30.110000	-140.620000
-5.150000	30.230000	-49.990000
-5.410000	30.190000	-47.140000
-5.430000	30.130000	-120.750000
-5.520000	30.160000	-53.540000
-5.150000	30.220000	-55.930000
-5.300000	30.160000	-111.880000
-5.840000	30.060000	-116.680000
-6.250000	29.990000	-108.830000
-5.740000	30.070000	-133.370000
-6.010000	30.060000	-68.690000
-6.080000	30.040000	-70.390000
-5.470000	30.110000	-138.140000
-5.620000	30.090000	-139.240010
-5.520000	30.140000	-86.990000
-5.490000	30.150000	-73.190000
-5.680000	30.120000	-74.680000
-5.490000	30.130000	-81.950000
-6.010000	30.010000	-142.910000
-5.590000	30.130000	-66.730000
-5.800000	30.080000	-80.360000
-5.870000	30.090000	-61.360000
-5.820000	30.100000	-56.930000
-5.930000	30.150000	-43.550000
-5.320000	30.260000	-42.300000
-5.920000	30.130000	-41.070000
-5.350000	30.220000	-45.870000
-6.050000	30.040000	-91.720000
-5.450000	30.180000	-34.120000
-5.920000	30.050000	-96.160000
-6.030000	30.080000	-32.240000
-5.820000	30.120000	-33.470000
-5.780000	30.080000	-102.080000
-5.850000	30.070000	-106.620000
-5.790000	30.110000	-49.110000
-5.600000	30.100000	-117.950000
-5.800000	30.060000	-119.430000
-6.540000	29.930000	-123.400000
-5.960000	30.040000	-117.280000
-6.230000	30.020000	-58.650000
-5.980000	30.020000	-127.700000
-6.750000	29.920000	-60.340000
-6.360000	29.960000	-132.250000
-6.440000	29.980000	-65.120000
-6.210000	29.990000	-97.790000
-5.540000	30.130000	-89.960000
-6.640000	29.900000	-136.429990
-6.130000	30.020000	-81.390000
-6.140000	30.020000	-87.810000
-6.250000	30.010000	-76.080000
-6.360000	29.980000	-78.940000
-6.370000	30.000000	-63.940000
-6.470000	29.960000	-79.630000
-6.230000	30.020000	-55.770000
-6.430000	29.960000	-83.610000
-6.130000	30.050000	-52.570000
-6.730000	29.910000	-86.500000
-6.230000	30.110000	-44.590000
-5.900000	30.110000	-40.070000
-5.920000	30.100000	-38.940000
-5.820000	30.110000	-37.550000
-6.560000	29.980000	-36.360000
-6.470000	30.000000	-34.870000
-6.690000	29.910000	-95.150000
-6.490000	29.950000	-98.960000
-6.310000	29.980000	-100.500000
-5.840000	30.060000	-110.930000
-6.720000	29.900000	-114.710000
-6.040000	30.020000	-115.750000
-7.170000	29.890000	-47.570000
-6.360000	29.960000	-119.820000
-6.830000	29.880000	-118.680000
-6.800000	29.920000	-54.350000
-6.950000	29.850000	-121.540000
-6.250000	30.020000	-62.600000
-6.550000	29.940000	-105.200000
-6.120000	30.040000	-66.640000
-6.390000	29.990000	-67.310000
-6.950000	29.840000	-134.230000
-6.390000	29.970000	-88.650000
-6.940000	29.840000	-138.300000
-6.360000	29.980000	-85.100000
-6.320000	30.000000	-72.550000
-6.400000	29.980000	-71.540000
-6.180000	30.010000	-89.660000
-6.970000	29.840000	-139.910000
-6.880000	29.860000	-141.370000
-6.470000	29.970000	-73.970000
-6.470000	29.960000	-82.400000
-6.750000	29.920000	-77.020000
-6.580000	29.940000	-77.910000
-6.520000	29.980000	-50.420000
-6.890000	29.970000	-45.290000
-6.460000	30.030000	-46.450000
-6.490000	30.050000	-42.410000
-6.820000	29.940000	-40.580000
-6.760000	29.900000	-90.490000
-7.130000	29.870000	-39.120000
-6.390000	30.010000	-37.900000
-6.810000	29.930000	-33.080000
-7.030000	29.840000	-110.640000
-6.870000	29.870000	-112.570000
-7.320000	29.790000	-116.670000
-7.230000	29.790000	-133.530000
-7.050000	29.830000	-126.570000
-7.400000	29.760000	-128.200000
-6.920000	29.850000	-129.330000
-6.940000	29.850000	-130.960010
-7.360000	29.820000	-63.520000
-6.820000	29.890000	-102.870000
-7.200000	29.820000	-104.320000
-7.180000	29.820000	-105.910000
-7.270000	29.800000	-96.530000
-6.970000	29.880000	-68.370000
-7.860000	29.680000	-135.740010
-7.860000	29.710000	-89.380000
-7.460000	29.790000	-72.060000
-7.000000	29.870000	-75.050000
-7.280000	29.810000	-80.620000
-7.300000	29.780000	-142.910000
-7.420000	29.790000	-75.720000
-7.620000	29.770000	-61.760000
-7.330000	29.820000	-57.120000
-7.080000	29.850000	-85.150000
-7.200000	29.850000	-49.280000
-7.410000	29.810000	-52.990000
-7.230000	29.840000	-51.700000
-7.390000	29.880000	-46.700000
-7.310000	29.800000	-87.610000
-7.880000	29.760000	-41.720000
-7.480000	29.810000	-32.220000
-7.410000	29.780000	-101.640000
-7.350000	29.830000	-34.410000
-7.510000	29.800000	-37.820000
-7.470000	29.770000	-107.550000
-7.680000	29.720000	-120.030000
-8.190000	29.620000	-122.800000
-7.810000	29.730000	-56.070000
-7.710000	29.750000	-58.860000
-7.360000	29.780000	-124.370000
-7.530000	29.740000	-125.330000
-7.540000	29.780000	-64.810000
-7.490000	29.750000	-132.120000
-7.160000	29.850000	-66.480000
-7.650000	29.740000	-100.150000
-7.580000	29.750000	-97.910000
-7.650000	29.740000	-92.060000
-7.410000	29.800000	-69.700000
-7.300000	29.820000	-70.760000
-7.450000	29.780000	-82.180000
-7.720000	29.730000	-85.480000
-7.300000	29.820000	-73.580000
-7.580000	29.760000	-78.440000
-7.610000	29.750000	-77.400000
-7.940000	29.710000	-67.450000
-8.080000	29.660000	-79.500000
-8.040000	29.670000	-84.220000
-7.320000	29.900000	-44.090000
-8.160000	29.720000	-42.800000
-7.430000	29.780000	-91.120000
-7.510000	29.810000	-40.020000
-7.450000	29.810000	-35.820000
-7.760000	29.720000	-94.440000
-8.240000	29.630000	-98.880000
-8.070000	29.700000	-33.460000
-8.300000	29.620000	-102.720000
-8.380000	29.600000	-103.970000
-7.650000	29.730000	-110.040000
-8.290000	29.610000	-111.410000
-8.000000	29.660000	-114.280000
-8.180000	29.630000	-118.380000
-8.540000	29.600000	-54.310000
-8.600000	29.540000	-127.350000
-8.260000	29.620000	-106.030000
-8.190000	29.630000	-108.830000
-8.410000	29.580000	-130.240010
-8.430000	29.580000	-133.750000
-7.870000	29.700000	-93.180000
-8.330000	29.610000	-95.270000
-8.670000	29.570000	-69.120000
-8.210000	29.610000	-137.580000
-8.170000	29.660000	-71.400000
-8.010000	29.650000	-141.730000
-8.050000	29.640000	-140.460010
-7.830000	29.720000	-74.910000
-8.500000	29.590000	-76.360000
-8.580000	29.570000	-78.410000
-8.480000	29.610000	-66.100000
-8.430000	29.600000	-80.760000
-7.960000	29.710000	-50.620000
-8.400000	29.610000	-86.390000
-8.140000	29.750000	-44.520000
-8.230000	29.730000	-45.800000
-8.300000	29.670000	-48.940000
-9.020000	29.530000	-32.590000
-8.900000	29.550000	-33.930000
-8.530000	29.560000	-112.840000
-8.200000	29.610000	-139.090000
-8.810000	29.500000	-135.080000
-8.770000	29.520000	-119.660000
-8.640000	29.590000	-51.440000
-8.560000	29.600000	-52.450000
-8.510000	29.570000	-120.880000
-8.600000	29.540000	-125.830000
-8.510000	29.560000	-124.840000
-8.440000	29.620000	-57.540000
-8.380000	29.590000	-115.390000
-8.320000	29.600000	-128.970000
-8.550000	29.600000	-60.230000
-8.550000	29.600000	-64.420000
-8.850000	29.520000	-101.140000
-8.860000	29.500000	-131.550000
-9.010000	29.490000	-97.300000
-9.140000	29.460000	-99.410000
-8.710000	29.550000	-90.690000
-8.850000	29.520000	-93.940000
-8.890000	29.510000	-92.990000
-8.620000	29.570000	-82.720000
-8.370000	29.620000	-70.290000
-8.820000	29.540000	-71.540000
-8.390000	29.620000	-72.750000
-9.130000	29.480000	-73.930000
-8.730000	29.550000	-75.260000
-8.510000	29.560000	-142.929990
-9.110000	29.480000	-76.920000
-8.890000	29.520000	-88.590000
-8.790000	29.570000	-40.830000
-9.210000	29.550000	-46.760000
-8.970000	29.540000	-40.100000
-8.280000	29.660000	-38.990000
-8.210000	29.670000	-36.810000
-8.920000	29.550000	-35.350000
-9.060000	29.520000	-37.670000
-9.480000	29.480000	-48.300000
-8.870000	29.500000	-117.020000
-9.430000	29.460000	-50.010000
-9.620000	29.360000	-121.690000
-9.490000	29.380000	-126.390000
-8.820000	29.550000	-62.890000
-9.030000	29.480000	-107.320000
-9.070000	29.500000	-66.800000
-9.410000	29.390000	-136.560000
-8.980000	29.500000	-91.860000
-9.310000	29.410000	-139.330000
-9.020000	29.490000	-81.570000
-9.480000	29.410000	-84.600000
-9.730000	29.370000	-72.690000
-9.220000	29.430000	-141.120000
-9.130000	29.490000	-61.800000
-9.280000	29.460000	-56.240000
-10.060000	29.330000	-52.370000
-9.450000	29.510000	-45.150000
-9.070000	29.560000	-44.270000
-9.580000	29.430000	-38.990000
-9.190000	29.490000	-36.210000
-9.450000	29.450000	-31.190000
-9.880000	29.330000	-102.390000
-9.440000	29.410000	-105.140000
-8.870000	29.500000	-108.280000
-9.070000	29.460000	-109.800000
-8.940000	29.490000	-114.230000
-9.800000	29.330000	-113.640000
-9.250000	29.420000	-142.950000
-9.960000	29.300000	-115.210000
-9.790000	29.330000	-134.399990
-9.530000	29.380000	-132.490010
-9.720000	29.340000	-118.840000
-9.560000	29.370000	-120.610000
-9.290000	29.420000	-128.830000
-9.480000	29.380000	-124.470000
-9.370000	29.450000	-57.320000
-9.450000	29.430000	-58.670000
-9.410000	29.400000	-109.110000
-9.360000	29.420000	-106.740000
-9.520000	29.380000	-110.830000
-10.290000	29.250000	-106.230000
-9.880000	29.360000	-63.370000
-9.720000	29.380000	-65.210000
-9.480000	29.420000	-67.910000
-9.740000	29.360000	-95.720000
-9.570000	29.390000	-92.070000
-10.290000	29.270000	-69.080000
-9.450000	29.420000	-86.750000
-10.030000	29.280000	-137.910000
-9.530000	29.400000	-79.920000
-9.940000	29.330000	-70.630000
-10.060000	29.300000	-75.360000
-9.890000	29.330000	-79.220000
-9.580000	29.390000	-80.750000
-9.870000	29.340000	-78.180000
-9.900000	29.340000	-82.540000
-10.400000	29.280000	-50.850000
-9.770000	29.420000	-43.310000
-9.860000	29.380000	-41.880000
-10.350000	29.240000	-93.390000
-9.510000	29.400000	-94.510000
-9.710000	29.360000	-100.740000
-10.740000	29.170000	-100.010000
-10.050000	29.300000	-103.910000
-9.970000	29.310000	-107.820000
-10.210000	29.260000	-109.940000
-9.710000	29.340000	-111.950000
-10.310000	29.230000	-112.920000
-10.090000	29.270000	-141.899990
-10.290000	29.240000	-116.570000
-10.570000	29.180000	-140.610000
-9.740000	29.340000	-130.030000
-10.360000	29.220000	-132.960010
-9.820000	29.370000	-53.700000
-10.210000	29.250000	-127.530000
-10.080000	29.270000	-123.110000
-10.880000	29.170000	-56.710000
-9.960000	29.340000	-60.120000
-10.430000	29.210000	-128.899990
-10.600000	29.220000	-61.750000
-10.270000	29.240000	-131.399990
-10.090000	29.310000	-66.480000
-10.430000	29.210000	-135.460010
-10.070000	29.300000	-90.940000
-10.430000	29.240000	-88.210000
-10.050000	29.310000	-87.430000
-10.190000	29.280000	-89.610000
-10.920000	29.120000	-143.250000
-10.250000	29.270000	-81.620000
-10.690000	29.200000	-59.010000
-9.930000	29.360000	-40.720000
-10.270000	29.330000	-44.050000
-10.620000	29.230000	-39.300000
-10.500000	29.260000	-37.480000
-9.960000	29.360000	-35.830000
-10.270000	29.300000	-34.800000
-10.280000	29.300000	-33.640000
-10.620000	29.190000	-96.600000
-10.340000	29.240000	-98.130000
-10.710000	29.220000	-31.850000
-10.930000	29.130000	-104.810000
-10.170000	29.270000	-106.460000
-10.690000	29.170000	-108.680000
-11.210000	29.070000	-111.540000
-10.940000	29.230000	-46.260000
-10.720000	29.280000	-47.640000
-10.890000	29.130000	-115.730000
-11.100000	29.090000	-114.120000
-10.590000	29.190000	-117.920000
-10.580000	29.230000	-54.920000
-10.660000	29.170000	-120.440000
-10.480000	29.240000	-57.780000
-10.600000	29.180000	-125.080000
-11.030000	29.140000	-60.440000
-11.060000	29.110000	-107.210000
-10.890000	29.140000	-101.920000
-11.090000	29.100000	-94.860000
-10.990000	29.130000	-91.920000
-10.700000	29.190000	-85.770000
-10.780000	29.140000	-139.149990
-10.990000	29.140000	-71.610000
-10.980000	29.140000	-73.530000
-10.600000	29.200000	-80.390000
-10.840000	29.170000	-67.500000
-10.630000	29.200000	-77.000000
-11.200000	29.090000	-79.180000
-11.540000	29.030000	-82.630000
-10.880000	29.240000	-49.150000
-11.310000	29.080000	-87.160000
-11.010000	29.170000	-42.890000
-11.180000	29.130000	-41.330000
-11.040000	29.160000	-35.860000
-11.420000	29.040000	-102.880000
-11.010000	29.100000	-136.620000
-11.610000	29.000000	-116.910000
-11.530000	29.050000	-53.220000
-11.260000	29.060000	-129.899990
-11.240000	29.060000	-126.060000
-11.240000	29.070000	-119.370000
-10.990000	29.110000	-122.550000
-11.380000	29.030000	-123.820000
-11.180000	29.080000	-121.340000
-11.680000	28.990000	-128.660000
-11.330000	29.090000	-63.300000
-11.410000	29.050000	-103.860000
-11.120000	29.130000	-64.510000
-11.250000	29.100000	-65.860000
-11.660000	28.990000	-131.509990
-11.190000	29.070000	-133.830000
-11.780000	28.960000	-135.149990
-12.020000	28.950000	-88.850000
-11.170000	29.100000	-90.550000
-11.280000	29.080000	-69.780000
-11.390000	29.060000	-84.050000
-11.010000	29.130000	-72.580000
-11.380000	29.030000	-141.600010
-11.250000	29.090000	-77.650000
-11.760000	28.990000	-75.600000
-11.450000	29.050000	-76.710000
-12.030000	28.950000	-68.940000
-11.540000	29.030000	-80.880000
-11.310000	29.140000	-44.920000
-11.190000	29.130000	-34.460000
-11.330000	29.110000	-33.580000
-11.730000	28.980000	-101.510000
-11.400000	29.040000	-109.940000
-11.720000	29.050000	-43.950000
-11.880000	28.940000	-137.950000
-11.530000	29.000000	-139.679990
-11.530000	29.020000	-118.030000
-12.100000	28.910000	-120.460000
-11.730000	29.040000	-51.500000
-11.710000	29.020000	-58.140000
-11.710000	28.980000	-125.090000
-11.410000	29.030000	-127.210000
-11.800000	28.970000	-108.090000
-11.790000	28.970000	-109.110000
-12.120000	28.940000	-62.080000
-11.700000	28.990000	-99.140000
-11.470000	29.020000	-132.830000
-11.970000	28.940000	-96.300000
-11.920000	28.960000	-93.680000
-12.770000	28.800000	-91.950000
-12.280000	28.900000	-72.400000
-11.540000	29.030000	-74.880000
-12.510000	28.860000	-74.050000
-12.160000	28.890000	-143.179990
-12.160000	28.930000	-70.760000
-12.030000	28.940000	-77.930000
-12.260000	28.920000	-57.350000
-11.620000	29.020000	-82.960000
-11.850000	29.050000	-48.350000
-12.100000	29.000000	-47.410000
-11.930000	29.050000	-49.710000
-12.040000	28.940000	-85.040000
-12.060000	28.940000	-86.110000
-11.500000	29.080000	-40.120000
-12.060000	28.970000	-39.350000
-11.990000	28.990000	-37.270000
-12.500000	28.890000	-33.150000
-12.200000	28.950000	-34.730000
-11.920000	28.960000	-90.820000
-12.330000	28.880000	-97.610000
-11.960000	28.940000	-100.320000
-11.770000	28.980000	-106.050000
-12.690000	28.800000	-111.380000
-12.660000	28.810000	-109.800000
-12.010000	28.920000	-140.780000
-11.990000	28.930000	-115.000000
-12.180000	28.890000	-121.170000
-11.910000	28.980000	-54.280000
-11.820000	29.000000	-55.340000
-12.200000	28.880000	-122.800000
-12.250000	28.880000	-126.590000
-12.710000	28.800000	-127.540000
-12.600000	28.820000	-115.950000
-12.300000	28.910000	-59.670000
-12.480000	28.880000	-64.700000
-12.390000	28.850000	-131.730000
-12.260000	28.870000	-133.580000
-12.540000	28.820000	-134.929990
-12.550000	28.860000	-67.160000
-12.280000	28.870000	-136.300000
-12.800000	28.770000	-139.130000
-12.590000	28.840000	-79.670000
-12.630000	28.840000	-77.070000
-12.430000	28.870000	-81.330000
-13.010000	28.760000	-83.840000
-12.690000	28.860000	-52.610000
-12.930000	28.850000	-46.170000
-12.430000	28.930000	-45.150000
-13.010000	28.770000	-87.550000
-12.240000	28.940000	-42.540000
-12.220000	28.940000	-40.410000
-12.870000	28.820000	-41.600000
-12.600000	28.830000	-95.400000
-12.330000	28.930000	-31.460000
-12.350000	28.870000	-104.340000
-12.370000	28.870000	-102.890000
-12.680000	28.810000	-107.160000
-12.510000	28.840000	-105.550000
-12.670000	28.800000	-112.880000
-11.990000	28.930000	-114.040000
-12.850000	28.780000	-118.850000
-12.620000	28.850000	-53.830000
-12.730000	28.790000	-124.650000
-12.770000	28.780000	-125.590000
-12.590000	28.830000	-117.460000
-12.400000	28.900000	-55.970000
-13.190000	28.750000	-58.240000
-12.620000	28.810000	-130.440000
-12.630000	28.820000	-108.680000
-12.390000	28.890000	-63.780000
-12.700000	28.810000	-101.720000
-13.120000	28.730000	-99.180000
-12.420000	28.880000	-65.730000
-12.930000	28.780000	-90.420000
-12.910000	28.780000	-82.530000
-13.360000	28.670000	-140.710010
-13.060000	28.720000	-141.620000
-13.390000	28.700000	-75.560000
-13.200000	28.730000	-70.180000
-12.930000	28.870000	-48.740000
-12.710000	28.840000	-54.950000
-12.990000	28.820000	-51.520000
-13.110000	28.750000	-85.570000
-12.960000	28.850000	-50.320000
-13.220000	28.760000	-43.460000
-13.310000	28.740000	-38.510000
-12.860000	28.830000	-34.230000
-13.410000	28.730000	-31.190000
-13.080000	28.790000	-32.310000
-13.190000	28.720000	-100.690000
-13.200000	28.760000	-35.130000
-14.010000	28.610000	-39.950000
-13.580000	28.640000	-114.270000
-13.490000	28.660000	-116.650000
-13.630000	28.640000	-118.080000
-13.130000	28.720000	-121.490000
-13.500000	28.650000	-122.400000
-12.980000	28.780000	-56.510000
-13.590000	28.630000	-123.610000
-13.770000	28.600000	-126.240000
-13.530000	28.680000	-61.390000
-13.820000	28.590000	-128.620000
-12.790000	28.780000	-129.490010
-13.460000	28.660000	-130.070010
-13.070000	28.740000	-104.060000
-13.500000	28.690000	-62.930000
-14.070000	28.560000	-102.480000
-13.440000	28.660000	-132.399990
-13.340000	28.670000	-133.830000
-13.210000	28.720000	-96.370000
-13.350000	28.690000	-94.770000
-13.740000	28.620000	-93.320000
-13.150000	28.710000	-136.080000
-13.880000	28.600000	-89.380000
-13.000000	28.740000	-137.590000
-13.510000	28.680000	-71.330000
-13.730000	28.640000	-72.690000
-13.470000	28.650000	-142.789990
-13.560000	28.660000	-78.070000
-13.530000	28.670000	-79.190000
-13.720000	28.640000	-76.800000
-13.790000	28.630000	-65.630000
-13.210000	28.740000	-64.140000
-13.640000	28.650000	-81.130000
-13.380000	28.790000	-47.630000
-13.330000	28.720000	-55.800000
-13.700000	28.660000	-54.340000
-13.470000	28.730000	-52.170000
-13.340000	28.740000	-36.220000
-13.950000	28.630000	-32.740000
-14.290000	28.570000	-35.770000
-13.760000	28.660000	-37.400000
-14.050000	28.560000	-105.720000
-13.440000	28.670000	-108.710000
-13.790000	28.600000	-110.100000
-14.050000	28.550000	-115.550000
-13.940000	28.570000	-135.420000
-14.040000	28.560000	-119.830000
-13.810000	28.590000	-124.930000
-13.270000	28.730000	-59.680000
-13.630000	28.660000	-68.080000
-14.370000	28.510000	-86.630000
-13.750000	28.600000	-137.460010
-14.150000	28.520000	-139.840000
-14.110000	28.570000	-74.130000
-14.280000	28.540000	-67.070000
-13.910000	28.600000	-69.190000
-14.240000	28.550000	-63.920000
-14.040000	28.570000	-79.880000
-14.640000	28.470000	-78.690000
-14.120000	28.580000	-56.810000
-13.820000	28.690000	-48.900000
-14.330000	28.520000	-82.600000
-13.910000	28.600000	-84.990000
-14.070000	28.610000	-45.040000
-14.170000	28.590000	-34.250000
-14.000000	28.580000	-90.880000
-14.010000	28.570000	-95.840000
-14.260000	28.520000	-99.870000
-13.840000	28.600000	-107.580000
-14.200000	28.620000	-50.780000
-14.300000	28.510000	-112.520000
-14.900000	28.400000	-114.790000
-13.790000	28.590000	-131.340000
-14.050000	28.620000	-53.080000
-14.530000	28.460000	-121.460000
-14.510000	28.460000	-127.180000
-14.520000	28.500000	-58.300000
-14.640000	28.480000	-59.960000
-14.950000	28.380000	-130.720000
-14.720000	28.420000	-129.670000
-14.010000	28.570000	-97.550000
-14.650000	28.440000	-132.120000
-14.380000	28.500000	-94.630000
-14.600000	28.470000	-91.940000
-14.080000	28.570000	-70.170000
-14.950000	28.380000	-138.690000
-14.510000	28.500000	-71.880000
-14.580000	28.440000	-141.670000
-15.010000	28.410000	-68.880000
-14.740000	28.450000	-81.340000
-15.250000	28.440000	-49.660000
-14.260000	28.550000	-55.490000
-15.490000	28.350000	-54.430000
-14.800000	28.520000	-48.050000
-14.430000	28.500000	-84.170000
-14.610000	28.530000	-52.270000
-14.810000	28.430000	-85.300000
-14.450000	28.570000	-46.850000
-14.180000	28.590000	-42.550000
-14.810000	28.430000	-88.340000
-14.730000	28.480000	-41.310000
-14.920000	28.450000	-31.520000
-14.960000	28.390000	-96.160000
-14.630000	28.460000	-98.890000
-14.820000	28.420000	-101.050000
-14.740000	28.430000	-104.060000
-14.510000	28.470000	-108.710000
-15.080000	28.370000	-107.210000
-14.540000	28.460000	-111.550000
-15.210000	28.340000	-113.290000
-15.010000	28.380000	-116.410000
-14.840000	28.410000	-117.620000
-14.130000	28.530000	-133.179990
-14.790000	28.410000	-134.380000
-15.160000	28.350000	-118.790000
-14.990000	28.380000	-123.000000
-14.850000	28.400000	-124.100000
-15.420000	28.300000	-125.760000
-15.220000	28.330000	-129.210010
-15.120000	28.390000	-61.630000
-14.990000	28.370000	-136.509990
-15.230000	28.330000	-137.660000
-15.070000	28.400000	-73.120000
-14.740000	28.450000	-77.300000
-14.910000	28.420000	-76.160000
-15.040000	28.400000	-74.990000
-15.220000	28.370000	-70.780000
-15.300000	28.350000	-63.350000
-15.100000	28.430000	-52.720000
-14.980000	28.400000	-83.670000
-14.690000	28.500000	-45.650000
-14.750000	28.480000	-43.960000
-14.930000	28.450000	-38.400000
-15.130000	28.410000	-36.990000
-15.140000	28.370000	-90.250000
-15.270000	28.350000	-92.330000
-15.220000	28.400000	-33.020000
-15.370000	28.370000	-35.340000
-15.590000	28.330000	-43.350000
-15.230000	28.340000	-111.030000
-15.460000	28.290000	-135.350010
-15.280000	28.320000	-128.370000
-15.360000	28.310000	-120.310000
-15.540000	28.320000	-56.020000
-16.300000	28.140000	-124.720000
-15.170000	28.390000	-56.960000
-15.500000	28.330000	-58.400000
-15.640000	28.300000	-59.830000
-15.370000	28.340000	-64.650000
-15.730000	28.250000	-103.180000
-15.180000	28.380000	-66.060000
-15.660000	28.250000	-133.300000
-15.430000	28.310000	-98.030000
-15.610000	28.280000	-94.870000
-15.590000	28.290000	-93.660000
-15.210000	28.370000	-73.670000
-16.390000	28.160000	-71.930000
-15.790000	28.220000	-140.620000
-15.860000	28.250000	-74.500000
-15.040000	28.390000	-80.140000
-15.800000	28.250000	-77.900000
-16.040000	28.180000	-142.560000
-16.010000	28.220000	-76.320000
-16.040000	28.210000	-82.770000
-16.070000	28.290000	-51.460000
-15.360000	28.330000	-85.920000
-15.880000	28.230000	-84.440000
-15.230000	28.390000	-44.800000
-15.690000	28.310000	-46.050000
-15.640000	28.280000	-87.070000
-15.890000	28.230000	-91.470000
-15.070000	28.420000	-34.100000
-15.860000	28.230000	-99.840000
-15.890000	28.280000	-33.170000
-15.350000	28.320000	-102.230000
-15.820000	28.230000	-104.830000
-15.830000	28.280000	-39.610000
-15.670000	28.260000	-108.890000
-15.460000	28.350000	-41.040000
-15.320000	28.330000	-109.730000
-15.250000	28.330000	-112.020000
-16.370000	28.130000	-112.340000
-16.410000	28.110000	-131.850010
-15.960000	28.200000	-121.740000
-15.910000	28.210000	-123.440000
-16.140000	28.160000	-127.280000
-16.440000	28.110000	-130.240010
-15.670000	28.260000	-106.440000
-15.600000	28.300000	-67.180000
-15.950000	28.200000	-135.750000
-15.580000	28.290000	-88.670000
-16.080000	28.190000	-96.410000
-16.210000	28.170000	-92.870000
-16.090000	28.170000	-137.050000
-15.900000	28.230000	-79.170000
-15.920000	28.230000	-80.750000
-16.290000	28.170000	-73.760000
-15.840000	28.260000	-65.990000
-16.530000	28.120000	-81.460000
-15.900000	28.240000	-61.380000
-15.890000	28.330000	-48.880000
-16.220000	28.240000	-52.750000
-16.170000	28.240000	-47.510000
-16.140000	28.230000	-42.070000
-16.550000	28.150000	-37.190000
-16.510000	28.160000	-34.140000
-15.870000	28.280000	-31.960000
-16.010000	28.210000	-101.460000
-16.710000	28.070000	-107.590000
-16.140000	28.170000	-109.980000
-16.380000	28.180000	-44.690000
-16.440000	28.230000	-50.330000
-16.330000	28.130000	-113.980000
-15.990000	28.200000	-116.440000
-16.410000	28.120000	-139.280000
-17.020000	28.010000	-118.100000
-16.760000	28.060000	-119.780000
-16.990000	28.050000	-57.490000
-16.200000	28.160000	-114.870000
-16.650000	28.070000	-128.600010
-16.870000	28.050000	-102.500000
-16.590000	28.120000	-64.300000
-16.160000	28.180000	-98.300000
-16.340000	28.130000	-134.700000
-16.730000	28.060000	-133.649990
-16.690000	28.090000	-90.770000
-16.650000	28.110000	-68.500000
-16.370000	28.140000	-89.570000
-16.480000	28.120000	-85.310000
-16.400000	28.150000	-70.020000
-16.680000	28.090000	-86.430000
-16.650000	28.070000	-137.640000
-17.340000	27.940000	-136.200000
-16.190000	28.150000	-138.230000
-16.880000	28.050000	-79.590000
-16.760000	28.110000	-40.310000
-16.580000	28.150000	-35.260000
-16.970000	28.070000	-38.740000
-16.810000	28.110000	-32.040000
-16.810000	28.110000	-33.100000
-16.330000	28.150000	-97.600000
-16.830000	28.050000	-103.760000
-16.890000	28.040000	-105.830000
-16.840000	28.050000	-110.910000
-17.210000	28.030000	-46.230000
-17.040000	28.000000	-122.400000
-16.860000	28.120000	-53.690000
-17.200000	27.970000	-123.320000
-17.220000	27.960000	-126.300000
-17.720000	27.880000	-112.710000
-16.960000	28.020000	-115.160000
-17.080000	28.040000	-59.020000
-16.800000	28.090000	-60.150000
-17.000000	28.050000	-61.400000
-16.670000	28.110000	-62.320000
-17.460000	27.930000	-132.820010
-16.800000	28.080000	-66.010000
-16.770000	28.070000	-95.480000
-17.060000	28.010000	-99.180000
-16.790000	28.060000	-101.050000
-17.440000	27.940000	-98.110000
-16.730000	28.080000	-93.310000
-17.060000	28.020000	-94.790000
-17.040000	28.040000	-67.050000
-18.440000	27.740000	-134.810000
-16.830000	28.060000	-87.660000
-17.060000	28.020000	-83.420000
-17.260000	27.990000	-81.150000
-17.330000	27.990000	-70.090000
-17.510000	27.910000	-138.920000
-17.070000	28.020000	-77.770000
-17.040000	28.000000	-140.330000
-17.470000	27.920000	-141.630000
-17.140000	28.010000	-75.020000
-16.910000	28.080000	-55.880000
-17.490000	28.020000	-49.550000
-17.300000	28.030000	-48.020000
-17.210000	28.030000	-43.280000
-17.130000	28.000000	-89.140000
-16.900000	28.090000	-41.480000
-17.130000	28.010000	-92.210000
-17.020000	28.020000	-97.200000
-17.570000	27.970000	-31.020000
-17.770000	27.880000	-101.790000
-17.260000	27.970000	-104.830000
-17.610000	27.910000	-108.770000
-17.230000	27.980000	-109.890000
-18.020000	27.930000	-50.980000
-17.190000	27.980000	-116.520000
-17.450000	28.040000	-52.400000
-17.280000	27.950000	-127.900000
-17.710000	27.880000	-120.910000
-17.740000	27.880000	-119.520000
-17.170000	28.040000	-54.740000
-18.190000	27.800000	-110.860000
-17.520000	27.930000	-100.230000
-18.100000	27.800000	-129.520000
-17.510000	27.950000	-62.580000
-17.270000	28.000000	-65.240000
-17.880000	27.870000	-96.180000
-17.620000	27.920000	-94.010000
-17.630000	27.920000	-82.220000
-17.650000	27.910000	-87.890000
-17.720000	27.900000	-85.500000
-17.660000	27.880000	-137.990010
-17.710000	27.910000	-71.220000
-17.420000	27.950000	-84.540000
-17.420000	27.950000	-79.870000
-17.890000	27.880000	-73.670000
-18.070000	27.840000	-76.710000
-18.020000	27.820000	-143.170000
-17.550000	27.960000	-44.850000
-17.860000	27.870000	-89.950000
-17.870000	27.870000	-91.390000
-17.470000	27.990000	-34.550000
-17.710000	27.940000	-32.380000
-17.960000	27.900000	-33.610000
-17.580000	27.960000	-35.640000
-17.800000	27.880000	-107.730000
-18.030000	27.880000	-39.870000
-17.690000	27.890000	-114.530000
-17.840000	27.860000	-115.670000
-17.910000	27.840000	-130.740010
-17.650000	27.890000	-124.890000
-18.110000	27.870000	-55.420000
-18.270000	27.830000	-56.590000
-18.450000	27.750000	-117.200000
-17.900000	27.860000	-106.540000
-18.570000	27.710000	-127.380000
-18.180000	27.830000	-59.840000
-17.830000	27.900000	-60.820000
-18.120000	27.810000	-105.380000
-17.450000	27.960000	-64.040000
-18.360000	27.780000	-92.810000
-18.800000	27.680000	-131.620000
-18.410000	27.790000	-66.410000
-18.600000	27.730000	-97.080000
-18.220000	27.820000	-67.930000
-18.200000	27.830000	-69.220000
-17.520000	27.930000	-86.630000
-17.890000	27.880000	-72.160000
-18.190000	27.820000	-83.600000
-18.580000	27.720000	-136.820010
-18.280000	27.770000	-140.289990
-18.520000	27.760000	-75.320000
-17.820000	27.890000	-72.910000
-19.150000	27.610000	-141.670000
-18.440000	27.770000	-77.950000
-18.290000	27.810000	-61.690000
-18.410000	27.780000	-80.330000
-18.070000	27.840000	-78.940000
-18.510000	27.840000	-53.700000
-18.370000	27.810000	-46.700000
-18.190000	27.850000	-42.180000
-18.130000	27.860000	-41.190000
-18.980000	27.670000	-88.500000
-17.860000	27.910000	-38.290000
-18.050000	27.880000	-36.710000
-18.480000	27.760000	-99.410000
-18.660000	27.720000	-103.580000
-18.560000	27.780000	-35.810000
-18.630000	27.720000	-109.270000
-18.470000	27.800000	-43.310000
-18.630000	27.770000	-45.320000
-18.530000	27.790000	-44.090000
-18.740000	27.760000	-48.740000
-18.190000	27.790000	-128.410000
-19.040000	27.630000	-123.890000
-18.660000	27.710000	-122.030000
-18.530000	27.730000	-126.140000
-18.380000	27.760000	-114.570000
-19.220000	27.620000	-111.810000
-18.730000	27.700000	-106.560000
-18.790000	27.720000	-63.200000
-18.670000	27.710000	-132.640000
-18.490000	27.770000	-64.790000
-18.850000	27.690000	-94.480000
-18.580000	27.740000	-86.210000
-18.400000	27.770000	-87.300000
-18.880000	27.690000	-84.530000
-18.230000	27.820000	-70.350000
-18.870000	27.660000	-137.899990
-19.430000	27.600000	-71.750000
-19.040000	27.670000	-73.310000
-18.520000	27.780000	-58.820000
-18.620000	27.820000	-51.990000
-18.960000	27.680000	-82.850000
-18.850000	27.700000	-81.570000
-18.760000	27.750000	-34.990000
-18.640000	27.770000	-33.180000
-18.710000	27.760000	-32.020000
-18.910000	27.680000	-98.250000
-18.710000	27.710000	-101.100000
-19.450000	27.570000	-100.090000
-19.450000	27.570000	-102.470000
-18.730000	27.710000	-107.920000
-19.130000	27.630000	-113.550000
-19.420000	27.620000	-46.140000
-18.540000	27.740000	-115.450000
-19.440000	27.560000	-139.050000
-19.050000	27.640000	-118.640000
-19.560000	27.550000	-120.020000
-18.930000	27.650000	-124.940000
-18.860000	27.710000	-57.910000
-19.320000	27.630000	-60.750000
-18.790000	27.680000	-128.600010
-19.400000	27.570000	-129.289990
-19.100000	27.620000	-130.210010
-19.610000	27.530000	-132.170000
-19.180000	27.630000	-95.850000
-19.020000	27.660000	-90.910000
-19.510000	27.570000	-91.940000
-19.450000	27.580000	-89.840000
-19.990000	27.490000	-86.690000
-19.400000	27.600000	-70.240000
-19.390000	27.600000	-76.550000
-19.440000	27.590000	-77.500000
-19.440000	27.600000	-65.780000
-19.490000	27.590000	-68.150000
-19.730000	27.550000	-59.600000
-19.470000	27.580000	-79.070000
-19.300000	27.670000	-55.530000
-19.090000	27.700000	-49.900000
-19.690000	27.570000	-40.670000
-19.410000	27.620000	-39.070000
-19.520000	27.600000	-37.440000
-19.890000	27.540000	-36.320000
-19.570000	27.550000	-104.930000
-19.680000	27.530000	-107.150000
-19.300000	27.600000	-110.180000
-19.460000	27.610000	-44.310000
-19.570000	27.540000	-142.899990
-19.930000	27.480000	-115.000000
-19.910000	27.530000	-47.200000
-19.700000	27.510000	-140.440000
-19.360000	27.580000	-116.030000
-19.730000	27.600000	-51.140000
-20.270000	27.520000	-52.930000
-19.900000	27.470000	-133.640000
-19.560000	27.600000	-57.340000
-19.410000	27.610000	-58.500000
-19.780000	27.500000	-125.470000
-19.770000	27.500000	-126.660000
-20.550000	27.370000	-105.620000
-20.150000	27.430000	-127.850000
-19.900000	27.520000	-62.000000
-19.990000	27.500000	-64.000000
-19.860000	27.480000	-136.520000
-20.160000	27.420000	-135.330000
-19.940000	27.510000	-69.330000
-19.940000	27.500000	-85.400000
-19.560000	27.570000	-80.820000
-19.860000	27.510000	-74.920000
-20.080000	27.480000	-66.710000
-20.100000	27.470000	-84.020000
-19.440000	27.610000	-41.890000
-19.710000	27.570000	-43.040000
-19.580000	27.600000	-32.190000
-19.750000	27.570000	-31.120000
-19.560000	27.600000	-33.990000
-19.870000	27.550000	-34.940000
-19.770000	27.520000	-93.110000
-19.980000	27.530000	-33.020000
-20.240000	27.430000	-99.220000
-19.930000	27.480000	-101.010000
-19.620000	27.540000	-109.120000
-20.690000	27.340000	-113.850000
-20.260000	27.480000	-49.690000
-19.990000	27.470000	-117.230000
-20.120000	27.540000	-54.490000
-20.510000	27.370000	-124.430000
-20.480000	27.380000	-112.860000
-20.770000	27.330000	-111.410000
-20.680000	27.330000	-130.899990
-19.930000	27.490000	-97.670000
