3.711605	-10.011894	-67.136543
3.748249	-10.118294	-66.096855
3.717079	-10.043495	-64.977272
3.716377	-10.072792	-63.953545
3.608704	-10.109596	-63.183136
3.855251	-11.021896	-70.914818
3.790485	-10.698196	-69.625221
3.579609	-10.779594	-68.601105
3.529053	-10.568192	-67.796242
3.333229	-10.701996	-66.933029
3.298180	-10.662498	-65.877213
3.333992	-10.662292	-64.880089
3.270287	-10.695297	-63.863480
3.363453	-10.760094	-62.962112
3.562119	-10.881592	-62.171906
4.788177	-9.017998	-67.969566
4.625919	-8.740997	-66.976868
4.635208	-8.811691	-66.013351
4.708988	-8.756294	-64.970345
4.643356	-8.742691	-63.979790
4.564919	-9.055595	-63.050995
4.679588	-9.893295	-70.811455
4.481087	-9.729095	-69.804222
4.314369	-9.692192	-68.842201
4.250881	-9.631897	-67.903130
4.335484	-9.597198	-66.873428
4.294460	-9.623596	-65.896980
4.244186	-9.643394	-64.860794
4.211224	-9.639397	-63.891373
4.189869	-9.611198	-62.875305
4.274921	-9.631493	-61.871353
4.374481	-9.754791	-61.001160
4.572155	-9.888092	-60.189545
4.890247	-11.046295	-73.620483
4.655769	-10.923698	-72.647316
4.565620	-10.719193	-71.709381
4.376911	-10.607796	-70.883804
4.188335	-10.493591	-69.914635
4.071079	-10.610992	-69.012390
3.918331	-10.496094	-67.908249
3.795738	-10.393394	-66.869186
3.938671	-10.359695	-65.819710
3.938122	-10.295593	-64.876503
3.920601	-10.230194	-63.980553
3.849346	-10.473297	-62.887009
4.083248	-10.466293	-61.875259
4.058430	-10.592796	-60.857071
4.170120	-10.607597	-59.949738
4.266830	-10.864998	-59.087479
4.523018	-11.040894	-58.164505
4.641697	-11.773094	-73.708557
4.444065	-11.609192	-72.903503
4.220951	-11.522797	-71.947365
3.992649	-11.410294	-71.157700
3.881374	-11.197495	-69.942207
3.682354	-11.362297	-61.626526
3.830872	-11.348595	-60.837967
3.791798	-11.571693	-59.803116
4.098862	-11.589691	-58.867233
4.138985	-11.688393	-57.953720
4.396244	-11.812096	-57.144882
5.606205	-7.914192	-67.775009
5.411865	-7.802994	-66.839241
5.405403	-7.742294	-65.831268
5.262554	-7.809998	-64.757919
5.431923	-7.819595	-63.877876
5.654022	-7.833794	-63.080200
5.864578	-8.877693	-71.857719
5.594681	-8.605392	-70.809326
5.393459	-8.715996	-69.821510
5.417416	-8.626495	-68.836487
5.311401	-8.597694	-67.868187
5.142525	-8.505798	-66.827095
5.147507	-8.538597	-65.894020
5.102818	-8.519493	-64.889755
5.143658	-8.553795	-63.791000
5.178268	-8.630096	-62.869720
5.247963	-8.638298	-61.930893
5.324631	-8.715096	-60.856796
5.501301	-8.781998	-59.907623
5.936859	-9.688293	-73.782860
5.670273	-9.826492	-72.704605
5.491863	-9.673592	-71.806213
5.267284	-9.540894	-70.963966
5.081814	-9.420792	-69.971954
5.016193	-9.335999	-69.040192
4.849766	-9.204094	-67.827675
4.924713	-9.172798	-62.819077
4.954758	-9.402596	-61.757065
5.092800	-9.376495	-60.862762
5.127724	-9.615799	-59.858521
5.313103	-9.758293	-59.029037
5.572693	-9.935493	-58.047195
5.725613	-10.908394	-74.682564
5.470608	-10.637497	-73.844772
5.386948	-10.601997	-72.915848
5.142834	-10.474998	-72.012428
4.887184	-10.138596	-70.995590
4.710331	-10.483994	-59.704758
5.094791	-10.525894	-58.835129
5.055721	-10.599594	-57.882141
5.311546	-10.677292	-57.012161
5.458134	-10.893997	-56.350830
5.917797	-11.625496	-75.652077
5.464779	-11.635094	-74.787994
5.239079	-11.517693	-74.136009
5.083187	-11.158493	-73.166603
4.762730	-11.384796	-57.735962
4.998665	-11.685394	-56.780411
25.235514	-2.079498	-71.400307
4.991993	-12.254791	-74.326790
6.830616	-6.902992	-69.562775
6.702236	-6.906197	-68.913895
6.538883	-6.746292	-67.749481
6.478336	-6.754791	-66.730545
6.550343	-6.821297	-65.866264
6.566692	-6.820999	-64.914200
6.406239	-6.904793	-63.794167
6.464413	-6.826294	-62.919937
6.594788	-6.938293	-62.078049
6.593670	-7.082397	-61.149261
6.629208	-8.016495	-71.881790
6.560101	-7.800491	-70.785942
6.420071	-7.648598	-69.864304
6.318645	-7.620499	-68.874413
6.236950	-7.582993	-67.905640
6.247459	-7.406693	-66.821342
6.137012	-7.567596	-65.883301
6.198536	-7.506897	-64.901909
6.183479	-7.419693	-63.850166
6.246384	-7.620895	-62.849640
6.227940	-7.639297	-61.838028
6.241085	-7.706696	-60.852875
6.175068	-7.849892	-60.012634
6.528622	-8.057999	-59.043625
6.648937	-8.776398	-73.600952
6.411587	-8.572998	-72.834381
6.339169	-8.578697	-71.869492
6.111187	-8.443794	-70.922684
6.095154	-8.356796	-69.848679
6.027653	-8.266495	-68.913414
5.883549	-8.149895	-67.906456
5.839100	-8.210297	-62.708542
5.854900	-8.431793	-61.885605
5.967758	-8.380493	-60.783188
5.979649	-8.612694	-59.850266
6.126694	-8.650299	-58.822800
6.364162	-8.775993	-57.828934
6.419853	-9.076698	-57.063782
6.869629	-10.116196	-75.452377
6.539936	-9.830795	-74.688454
6.393303	-9.573494	-73.838631
6.090832	-9.596497	-72.892479
5.957073	-9.230293	-71.996582
5.682873	-9.148598	-59.641785
5.910278	-9.444199	-58.738541
6.019360	-9.726898	-57.859833
6.084049	-9.659698	-56.808655
6.315292	-9.754791	-56.153275
6.722260	-11.032295	-76.669174
6.526371	-10.708992	-75.794975
6.344746	-10.531693	-74.940308
5.973083	-10.275398	-73.955811
5.705757	-10.273994	-57.721497
5.814697	-10.569695	-56.690659
6.063133	-10.609795	-55.870605
25.403297	-1.896698	-70.298447
6.971981	-12.082092	-77.334801
6.569374	-11.685997	-76.844635
6.260498	-11.653793	-75.912788
6.010250	-11.318497	-75.209389
5.658741	-11.196198	-56.411728
25.351381	-1.684692	-69.415222
25.349186	-1.615898	-68.456787
25.303915	-1.608093	-67.445389
6.743843	-12.683296	-77.754105
6.361156	-12.600098	-77.001114
6.082699	-12.323494	-76.237640
25.313507	-1.514694	-66.390175
25.340271	-1.402596	-65.434158
25.235991	-1.375397	-64.408737
25.233009	-1.523796	-63.386826
7.839111	-5.992195	-69.782463
7.657848	-6.116699	-68.672470
7.395527	-5.854897	-67.606026
7.538731	-5.813293	-66.759224
7.415565	-5.964592	-65.857666
7.610058	-5.768097	-64.769569
7.455326	-5.937996	-63.805634
7.497387	-6.019295	-62.967407
7.862324	-7.010498	-71.777611
7.623749	-6.842392	-70.610092
7.393185	-6.651291	-69.823166
7.270363	-6.668297	-68.845772
7.206764	-6.560097	-67.760300
7.251087	-6.493591	-66.814278
7.291454	-6.615097	-65.841042
7.275471	-6.522896	-64.781876
7.120914	-6.615196	-63.749382
7.259121	-6.578995	-62.843231
7.155281	-6.618996	-61.825302
7.198189	-6.701195	-60.865021
7.458351	-6.868492	-59.856369
7.588737	-7.048592	-59.173218
7.946888	-8.050995	-74.416344
7.745750	-7.830399	-73.753006
7.491158	-7.709991	-72.716118
7.445686	-7.604897	-71.790016
7.179134	-7.458199	-70.844971
6.932877	-7.316498	-69.945564
6.864738	-7.220993	-69.007629
6.698830	-7.174194	-62.364471
6.861832	-7.163292	-61.668091
6.877987	-7.359795	-60.682022
7.063663	-7.604195	-59.770432
7.111740	-7.662292	-58.823227
7.253990	-7.873192	-57.866180
7.538532	-7.991898	-57.191544
7.577877	-8.821892	-74.724525
7.383057	-8.572594	-73.879364
7.176510	-8.410194	-72.935440
6.952229	-8.143692	-72.034515
6.631462	-8.178398	-59.430618
6.904877	-8.198792	-58.719223
7.018879	-8.440796	-57.781189
7.147915	-8.603195	-56.877075
7.406189	-8.819992	-56.210037
7.781021	-10.050095	-76.665230
7.566864	-9.701996	-75.793022
7.372005	-9.630898	-74.883698
7.029022	-9.199997	-74.109314
6.966576	-9.281494	-56.709625
6.988186	-9.593697	-55.785782
7.192188	-9.787895	-54.960587
7.794640	-10.725792	-77.460289
7.552483	-10.635696	-76.820808
7.378502	-10.409897	-76.000031
7.059330	-10.138794	-75.236847
6.694817	-10.386093	-55.546204
29.261627	-5.091599	-75.032944
29.307936	-4.717598	-74.234001
7.777916	-12.054695	-78.314987
7.662312	-11.646591	-77.747200
7.310051	-11.464691	-77.107765
29.481813	-4.462898	-73.381279
29.744482	-4.125992	-72.639236
25.342283	-2.979294	-73.301857
8.056988	-13.097298	-79.465439
7.724297	-12.669594	-78.760796
7.365002	-12.574593	-77.877678
25.384184	-2.622795	-72.384514
25.478991	-2.355698	-71.492325
25.511070	-2.187996	-70.558769
8.757984	-5.089798	-67.675735
8.589752	-5.003494	-66.940186
8.462246	-4.922195	-65.749954
8.500065	-4.871094	-64.995155
8.509518	-4.961098	-63.885063
8.595348	-5.071991	-63.066391
8.870087	-6.017899	-71.678268
8.661232	-5.810295	-70.823708
8.384922	-5.770996	-69.786140
8.370579	-5.727295	-68.765457
8.343277	-5.633392	-67.816124
8.202194	-5.615494	-66.887054
8.232304	-5.533096	-65.833282
8.159096	-5.635895	-64.732880
8.249920	-5.581993	-63.805367
8.205185	-5.661293	-62.808853
8.330692	-5.764992	-61.803894
8.405281	-5.802292	-60.865570
8.444885	-5.918892	-59.810547
8.566040	-6.112793	-59.262711
8.849751	-6.849197	-73.736465
8.541359	-6.830597	-72.753143
8.388340	-6.633896	-71.818481
8.278507	-6.528496	-70.736221
8.079750	-6.264198	-69.895180
8.027420	-6.164993	-68.907196
7.945248	-6.162598	-62.683136
8.068737	-6.303993	-61.798859
8.077660	-6.414696	-60.778336
8.110390	-6.565796	-59.810455
8.148674	-6.674095	-58.817673
8.263531	-6.788193	-58.061188
8.545235	-7.082794	-57.013351
8.757450	-7.990097	-75.487457
8.513092	-7.662498	-74.684044
8.452415	-7.596992	-73.789528
8.283669	-7.467796	-72.797707
8.179916	-7.182693	-71.965309
7.649574	-7.215797	-59.615906
7.806118	-7.455399	-58.670334
8.084461	-7.463692	-57.809692
8.089386	-7.756195	-56.761536
8.253738	-8.038094	-56.220749
8.805607	-8.850098	-76.621437
8.500473	-8.560493	-75.750130
8.347404	-8.553596	-74.972733
8.025589	-8.126396	-74.165649
7.599613	-8.143196	-57.335754
7.874878	-8.585999	-56.634827
8.042645	-8.677994	-55.777710
8.047771	-8.949097	-55.070023
8.755833	-9.752693	-77.500061
8.529385	-9.627998	-76.842102
8.345837	-9.395195	-75.969345
7.993088	-9.183792	-75.211906
7.728104	-9.400795	-55.538483
29.581421	-3.386192	-70.370056
29.479477	-5.772797	-76.188095
8.759956	-10.810898	-78.541908
8.545624	-10.612991	-77.837898
8.323921	-10.220497	-77.073669
29.513355	-5.438896	-75.419403
29.502201	-5.186295	-74.651764
29.452932	-3.533691	-71.336433
8.892330	-11.884094	-79.502670
8.556190	-11.635597	-78.687111
8.305931	-11.399994	-78.051170
25.466099	-4.057892	-75.997238
25.437618	-3.836998	-75.348045
25.447403	-3.577492	-74.402779
8.833523	-13.058693	-80.307808
8.563953	-12.679893	-79.736206
8.387611	-12.546295	-78.971901
25.540491	-3.285393	-73.592125
29.296965	-3.684296	-72.344200
29.186275	-4.000198	-73.023613
8.802074	-13.641792	-80.583588
8.115601	-13.247993	-79.260300
9.853352	-5.116898	-71.270187
9.553349	-5.000992	-70.633446
9.574436	-4.900299	-69.850990
9.418221	-4.878792	-68.883125
9.283653	-4.718292	-67.722961
9.297955	-4.647392	-66.781624
9.293472	-4.660896	-65.769272
9.254269	-4.635094	-64.806152
9.166889	-4.656891	-63.706856
9.202427	-4.684395	-62.800095
9.282543	-4.874794	-61.741074
9.489719	-4.886795	-60.728638
9.542908	-4.993896	-60.050919
9.774872	-6.023895	-73.499260
9.572060	-5.737991	-72.689133
9.367802	-5.598595	-71.782700
9.297886	-5.574196	-70.819344
9.276997	-5.472496	-69.728600
9.265770	-5.396896	-68.902046
9.161907	-5.278793	-67.894325
8.993057	-5.145195	-66.921181
8.803074	-5.129898	-64.634033
8.718906	-5.256294	-63.609940
9.147911	-5.293594	-62.631027
9.149181	-5.443993	-61.781494
9.153255	-5.577095	-60.765350
9.126152	-5.619392	-59.783340
9.327419	-5.789398	-58.894974
9.539429	-6.031197	-58.042450
9.544758	-6.972198	-74.565186
9.417744	-6.628494	-73.752419
9.387821	-6.469795	-72.879631
9.164131	-6.332298	-72.023628
8.751625	-6.132294	-59.628708
9.081776	-6.333298	-58.754532
9.067425	-6.593399	-57.738861
9.143833	-6.730095	-56.901215
9.215370	-6.980797	-56.193298
9.635014	-8.086594	-76.580414
9.517914	-7.725998	-75.682686
9.363140	-7.470894	-74.862343
8.966488	-7.226593	-73.928337
8.784348	-7.565292	-56.665787
9.033829	-7.609398	-55.785019
9.223667	-7.884392	-54.843292
9.771374	-8.955093	-77.446396
9.487732	-8.611298	-76.814972
9.278290	-8.226395	-75.901756
8.705490	-8.455292	-55.659454
8.912544	-8.535797	-54.753937
9.002308	-8.751198	-54.005676
9.769623	-9.993698	-78.443199
9.509361	-9.615593	-77.743736
9.252155	-9.229698	-77.072166
8.524578	-9.231895	-54.618149
29.105238	-7.094696	-78.007866
29.469088	-6.765991	-77.288994
9.821297	-10.913391	-79.523438
9.521618	-10.601593	-78.755798
9.245083	-10.317596	-78.020126
25.385452	-4.966599	-77.105598
25.474705	-4.612396	-76.434166
25.686106	-4.220795	-75.823105
9.989895	-11.986496	-80.289566
9.600517	-11.624596	-79.713943
9.271145	-11.418495	-79.158623
29.586807	-6.427994	-76.623833
25.554060	-5.804695	-78.271606
25.617498	-5.520493	-77.490967
9.642700	-12.773994	-80.534874
9.505505	-12.487099	-79.995888
25.674849	-5.121193	-76.909485
25.625061	-6.688995	-79.343849
9.554478	-13.593895	-80.748291
9.148209	-13.140793	-80.240074
25.567900	-6.246399	-78.686867
10.683243	-4.000298	-69.635139
10.557228	-3.852295	-68.652870
10.378868	-3.924393	-67.610947
10.415916	-3.687996	-66.808853
10.493042	-3.848396	-65.813812
10.358891	-3.974792	-64.740395
10.353554	-3.980995	-63.661453
10.386078	-3.860092	-62.620331
10.413567	-4.080399	-61.947006
10.777130	-5.087799	-72.570122
10.612263	-4.908997	-71.604523
10.379398	-4.696991	-70.722893
10.286377	-4.692696	-69.722198
10.308578	-4.613998	-68.794724
10.169361	-4.473999	-67.714279
10.111404	-4.365395	-66.716103
10.155277	-4.410393	-65.782967
10.164501	-4.417793	-64.766403
10.234417	-4.422394	-63.687820
10.111099	-4.405296	-62.775406
10.169930	-4.592194	-61.775574
10.166302	-4.650299	-60.766068
10.206600	-4.731094	-59.796692
10.364857	-5.086792	-58.770859
10.700016	-6.074394	-74.396660
10.438301	-5.659592	-73.685143
10.326828	-5.616791	-72.814339
10.286789	-5.367592	-71.782684
10.009525	-5.129791	-70.890556
9.669128	-5.126892	-60.290924
10.082943	-5.300598	-59.641159
10.119015	-5.566597	-58.740616
10.099266	-5.764397	-57.805771
10.254368	-5.958992	-56.945953
10.969635	-7.091797	-76.285477
10.629757	-6.966393	-75.603882
10.431858	-6.589294	-74.746216
10.301811	-6.279198	-73.968918
9.695747	-6.119492	-58.404449
9.914906	-6.285194	-57.563431
9.919682	-6.587692	-56.672241
10.047092	-6.720795	-55.885620
10.524540	-7.116692	-55.222794
10.731125	-7.916496	-77.387360
10.507740	-7.647598	-76.685196
10.407974	-7.497292	-75.747162
10.060261	-7.219696	-74.988274
9.870121	-7.495094	-55.470032
9.984394	-7.634995	-54.771912
10.268410	-8.003693	-53.738876
10.885807	-8.891396	-78.302025
10.500248	-8.601593	-77.681946
10.220562	-8.333092	-76.998901
9.801010	-8.188995	-54.551712
25.595995	-7.690292	-80.372757
25.676001	-7.253098	-79.740227
10.929672	-10.006699	-79.501854
10.569454	-9.613693	-78.690674
10.322109	-9.420792	-77.950089
29.373243	-7.904594	-78.996719
25.555346	-8.732796	-81.334511
25.802166	-8.316795	-80.772552
10.909733	-10.843895	-80.263161
10.558277	-10.579193	-79.755875
10.406353	-10.393692	-79.015144
25.055353	-1.066597	-64.155327
25.569176	-9.503891	-81.631462
24.613970	-9.463898	-81.763840
10.768581	-11.611198	-80.457230
10.394432	-11.438599	-80.032433
24.526081	-9.891296	-82.187866
24.651707	-8.193794	-80.897194
10.923897	-12.720398	-81.311867
10.576115	-12.606995	-80.738388
10.107029	-12.167198	-80.244316
24.560068	-8.669792	-81.408981
24.676493	-7.255798	-79.759720
11.081539	-13.915695	-82.283363
10.613144	-13.610893	-81.671997
10.402500	-13.388199	-81.113388
24.529230	-7.664192	-80.462532
24.692032	-8.113297	-81.020729
11.563728	-3.111298	-66.355820
11.612072	-3.086899	-65.921242
11.711250	-2.952591	-64.718628
11.654346	-3.084694	-63.664330
11.515350	-3.909294	-70.467438
11.371151	-3.687294	-69.722626
11.370113	-3.676895	-68.689194
11.285942	-3.643394	-67.768829
11.234200	-3.533394	-66.776863
11.214062	-3.553993	-65.706612
11.254383	-3.654099	-64.711777
11.232433	-3.607697	-63.760063
11.181416	-3.613892	-62.763748
11.278416	-3.807594	-61.749283
11.434269	-3.917496	-60.795975
11.271732	-4.048897	-59.964096
11.636143	-4.921196	-73.659454
11.549568	-4.645897	-72.826874
11.424980	-4.627594	-71.731628
11.329582	-4.424698	-70.774330
10.967819	-4.241096	-69.948349
10.778858	-4.130592	-63.879082
10.944008	-4.198792	-62.262329
10.996132	-4.272491	-61.598663
11.025227	-4.388092	-60.776291
11.116905	-4.531097	-59.746307
11.112873	-4.639992	-58.744690
11.227074	-4.827591	-57.944443
11.498783	-5.078796	-57.027969
11.923634	-5.848297	-75.633713
11.493397	-5.639198	-74.677063
11.302067	-5.468994	-73.714432
11.298626	-5.284798	-72.950523
11.101398	-5.138596	-71.986244
10.920250	-5.204292	-58.559677
11.071346	-5.419098	-57.762039
11.022995	-5.595695	-56.692520
11.272888	-5.868294	-55.967804
11.899117	-6.989494	-77.236938
11.656868	-6.779297	-76.687447
11.470802	-6.617096	-75.719933
11.177952	-6.360497	-74.879425
10.650299	-6.224899	-56.473984
11.047935	-6.628593	-55.703583
11.131729	-6.822395	-54.893555
11.660625	-8.036896	-78.263245
11.564770	-7.662697	-77.662422
11.424450	-7.388199	-76.812096
11.059498	-7.155693	-75.973244
10.680962	-7.161697	-55.349625
10.922413	-7.447594	-54.758728
11.022514	-7.678795	-53.698044
24.534616	-6.217392	-78.780609
11.742661	-8.939392	-79.250206
11.586788	-8.731697	-78.821091
11.293957	-8.533195	-78.028641
24.587749	-6.729492	-79.418205
24.666874	-5.235397	-77.673363
24.563684	-5.628098	-78.424416
11.857410	-10.063995	-80.238213
11.543831	-9.692795	-79.701584
11.369389	-9.445694	-78.937538
29.526741	-7.649498	-78.341385
24.441771	-4.509796	-76.557564
24.552706	-4.827393	-77.326309
11.584061	-10.701591	-80.611382
11.361172	-10.301094	-79.854141
29.778261	-7.437492	-77.593483
22.331078	-1.533493	-69.485344
22.335266	-1.699997	-70.452530
11.964756	-11.717995	-81.524857
11.512424	-11.546593	-80.795982
24.576511	-3.209892	-73.784889
24.481274	-3.462692	-74.443756
11.823837	-13.029793	-82.238640
11.626766	-12.686996	-81.619781
11.274460	-12.377197	-81.055801
24.518316	-3.690697	-75.398804
24.510054	-4.073395	-76.237076
29.736439	-8.174797	-78.797394
11.728550	-13.751297	-82.577614
11.445202	-13.443398	-81.891785
22.502987	-1.862198	-71.420021
26.077745	-2.100594	-70.224937
12.535458	-3.091995	-69.797127
12.468979	-3.115997	-68.539192
12.621613	-3.061394	-67.657318
12.450306	-2.958893	-66.585266
12.288429	-2.702293	-65.734619
12.260513	-2.745293	-64.751907
12.268955	-2.852196	-63.686028
12.163727	-2.958595	-62.772842
12.477051	-3.070297	-61.774857
12.684738	-3.899696	-72.488708
12.501816	-3.778297	-71.626556
12.416107	-3.610695	-70.710007
12.225002	-3.459496	-69.769951
12.258858	-3.426193	-68.681236
12.145077	-3.410698	-67.687531
12.153145	-3.249298	-66.805603
12.039799	-3.125198	-65.935699
11.840248	-3.152496	-64.713287
11.987423	-3.163597	-63.715057
12.031326	-3.313995	-62.651581
12.139511	-3.538498	-61.666901
12.148113	-3.616699	-60.690033
12.156956	-3.745895	-59.754623
12.210457	-3.988792	-58.877747
12.518131	-5.015091	-74.418129
12.449287	-4.587692	-73.657684
12.305534	-4.455498	-72.720795
12.192234	-4.289497	-71.852783
12.068489	-4.169296	-71.148239
11.745003	-4.127899	-60.794266
12.087074	-4.119293	-59.619781
12.068027	-4.415695	-58.668243
12.119762	-4.655594	-57.684448
12.092983	-4.945892	-56.894867
12.473068	-5.098892	-55.970444
12.696678	-5.978096	-76.476898
12.501606	-5.620895	-75.653534
12.340446	-5.452797	-74.856529
12.013012	-5.187096	-74.077354
11.855782	-5.124298	-57.351608
11.961166	-5.337997	-56.686234
12.032116	-5.641693	-55.718491
12.135338	-5.816795	-55.036850
12.677898	-7.011497	-77.518394
12.437172	-6.602692	-76.734314
12.075062	-6.244095	-75.838562
11.741806	-6.267593	-55.540085
12.014336	-6.635994	-54.728775
12.075111	-6.811798	-53.805038
12.428989	-7.078697	-53.108841
12.622025	-7.947296	-78.622002
12.478626	-7.527794	-77.795547
12.056953	-7.128395	-77.146347
11.815311	-7.140694	-54.294571
11.778996	-7.593094	-53.634689
26.158379	-1.879692	-69.275482
26.335472	-1.655197	-68.409317
12.654217	-8.764893	-79.638199
12.484722	-8.378098	-78.899261
26.335281	-1.585594	-67.396378
26.264738	-1.577995	-66.371254
12.713421	-9.842796	-80.337997
12.587910	-9.583893	-79.920914
26.279734	-1.596397	-65.457619
22.328238	-2.012093	-72.328934
12.825432	-10.870193	-81.265320
12.519897	-10.567596	-80.707146
22.442686	-1.113495	-63.498962
22.320131	-0.965195	-64.615700
12.929272	-11.894096	-82.197159
12.644753	-11.613098	-81.685410
12.317528	-11.150894	-81.105804
22.234558	-0.810791	-65.540413
22.258108	-0.846596	-66.427498
12.651608	-12.696396	-82.420120
12.553352	-12.372597	-82.037300
22.221481	-0.945694	-67.437462
26.270687	-3.022995	-73.165253
12.668480	-13.610893	-82.705460
26.351913	-2.652794	-72.346916
26.395975	-2.615997	-71.414024
13.500954	-3.017296	-70.572212
13.420742	-2.750092	-69.627945
13.366077	-2.693794	-68.697411
13.323715	-2.706993	-67.604691
13.280300	-2.599899	-66.685928
13.236847	-2.576599	-65.724007
13.230709	-2.622398	-64.713951
13.220394	-2.674393	-63.718086
13.206406	-2.722595	-62.664978
13.188194	-2.655495	-61.664093
13.182636	-2.873291	-60.788696
13.403111	-3.061996	-59.879639
13.542873	-3.971497	-73.307915
13.420349	-3.606697	-72.676971
13.407734	-3.482697	-71.654297
13.280170	-3.285095	-70.806679
12.947994	-3.164291	-69.689941
13.066505	-3.129097	-68.933243
12.896023	-3.122597	-68.077225
12.838943	-3.200592	-61.542664
13.043755	-3.258698	-60.700180
13.020367	-3.479492	-59.579025
13.146069	-3.683693	-58.727539
13.396431	-3.972496	-57.886749
13.790520	-5.114899	-75.585609
13.468643	-4.764099	-74.576149
13.391712	-4.509995	-73.771194
13.207985	-4.189796	-73.145744
13.114250	-4.304893	-58.377335
13.085884	-4.525894	-57.719528
13.058285	-4.630997	-56.724655
13.132832	-4.864594	-55.756714
13.911736	-6.035294	-77.188980
13.542782	-5.696098	-76.631538
13.410244	-5.452393	-75.717422
13.349140	-5.146797	-74.882751
12.926613	-5.119293	-56.481094
12.926643	-5.504196	-55.433792
12.982563	-5.665695	-54.729141
13.205326	-6.090492	-53.979675
13.920517	-7.020096	-78.220596
13.592422	-6.668091	-77.615364
13.417358	-6.441994	-77.022820
12.797958	-6.276291	-54.416168
12.985527	-6.650093	-53.731888
13.204975	-6.815399	-52.917953
13.779961	-7.974792	-79.459885
13.564030	-7.652596	-78.669281
13.291988	-7.237396	-77.843826
12.543964	-7.255692	-53.233185
26.415489	-2.432892	-70.468361
26.464720	-2.239899	-69.537361
13.793587	-9.089897	-80.320389
13.531670	-8.600395	-79.648438
13.332935	-8.174194	-79.150986
22.255695	-1.024895	-68.415154
29.288227	-2.975891	-70.179985
28.978310	-3.112595	-71.155243
13.621815	-9.671997	-80.614037
13.331367	-9.390594	-80.106323
22.386925	-1.221397	-68.486076
22.304302	-1.141792	-67.645828
21.831358	-1.128891	-66.798729
13.680973	-10.785393	-81.556015
13.503830	-10.548195	-80.993919
26.359335	-3.878098	-75.189301
26.486406	-3.692192	-74.405312
26.567236	-3.423897	-73.545349
13.655910	-11.625595	-82.317558
13.405834	-11.445099	-81.881241
22.269602	-1.135895	-64.383598
22.231035	-1.291595	-63.374496
13.669426	-12.622795	-82.604378
21.640244	-10.295792	-82.926895
26.514719	-4.781593	-76.309143
13.881214	-13.831299	-83.352219
13.546734	-13.652298	-82.893646
26.557871	-4.293594	-75.569366
21.606712	-10.705193	-83.231415
13.283955	-14.212791	-83.114685
14.556950	-2.103592	-68.518639
22.305403	-1.349297	-62.487152
22.275827	-1.356796	-61.470520
14.336411	-2.072395	-67.629478
14.207047	-1.958397	-66.636292
14.479721	-1.918793	-65.813629
14.445988	-2.100891	-64.795326
14.512531	-2.115898	-63.473351
14.533337	-2.087296	-62.454636
14.876715	-3.086594	-72.304756
14.604343	-2.978493	-71.432304
14.425159	-2.759193	-70.530632
14.377678	-2.615997	-69.662994
14.226532	-2.429695	-68.673103
14.161182	-2.348793	-67.720451
14.065960	-2.298393	-66.789032
14.165272	-2.250793	-65.592468
14.139935	-2.414894	-64.640884
14.237705	-2.448692	-63.703148
14.148983	-2.469498	-62.648148
14.128883	-2.519897	-61.675201
14.064220	-2.713295	-60.642624
14.225693	-2.904892	-59.685410
14.239422	-3.078896	-58.708557
14.654778	-4.077393	-74.356705
14.512615	-3.732895	-73.594879
14.382038	-3.530197	-72.771255
14.330730	-3.286797	-71.757614
14.209286	-3.159897	-70.943985
14.003040	-3.127098	-59.493790
13.992626	-3.450195	-58.537796
14.135406	-3.691292	-57.690948
14.318844	-3.913094	-56.717682
14.686062	-5.034798	-76.381714
14.515469	-4.713997	-75.556961
14.470493	-4.598099	-74.704590
14.260826	-4.232895	-73.921356
13.935291	-4.252899	-57.565002
13.978100	-4.568092	-56.651428
14.061901	-4.639992	-55.668579
14.161934	-5.025696	-55.073578
14.653690	-5.838295	-77.487976
14.399120	-5.530396	-76.715805
14.365799	-5.193298	-75.906281
14.085896	-5.147995	-55.381531
14.053829	-5.528694	-54.666367
14.049549	-5.886894	-53.933624
14.574776	-6.815292	-78.483604
14.493706	-6.466492	-77.636246
14.016026	-6.134796	-77.150970
13.908939	-6.511497	-53.489288
13.958012	-6.616592	-52.664825
26.486856	-6.068993	-78.087830
14.640003	-7.729698	-79.593033
14.418869	-7.379196	-78.803276
26.520037	-5.663597	-77.395592
26.515375	-5.314499	-76.725975
26.509975	-6.837196	-79.202095
14.703913	-8.732796	-80.588638
14.353748	-8.427193	-79.980530
26.561283	-6.512993	-78.575020
26.718985	-6.168594	-77.823570
26.436932	-7.811691	-80.069267
14.695131	-9.757195	-81.331139
14.541615	-9.530693	-80.799591
26.600698	-7.414093	-79.497780
21.475874	-9.132797	-81.821663
14.794863	-10.776794	-82.253845
14.582527	-10.600296	-81.732086
14.238876	-10.132797	-81.091301
26.385134	-8.842094	-81.105507
26.629402	-8.512398	-80.442871
14.669167	-11.633293	-82.595375
14.258286	-11.171394	-82.070297
21.610653	-9.640892	-82.486580
22.127789	-1.539894	-60.465240
14.910666	-12.774498	-83.152336
22.181339	-1.739494	-59.507217
21.629204	-8.634995	-81.512428
21.796850	-9.028397	-82.003670
22.141546	-1.962799	-58.672638
14.640816	-12.618797	-82.862061
22.426388	-2.948898	-74.361565
24.419403	-2.139397	-71.722351
14.624969	-13.633698	-83.619118
14.450790	-13.393593	-83.112762
24.470310	-2.465195	-72.504318
24.381874	-2.786194	-73.322563
21.572449	-7.510498	-80.692245
21.563488	-7.882896	-81.089638
22.433622	-2.670998	-73.454453
22.364107	-2.287292	-72.599510
21.441500	-6.500595	-79.596596
21.565168	-6.954094	-80.397476
24.189627	-3.093597	-74.107567
24.067690	-2.086693	-59.525177
14.553143	-14.571098	-83.831261
24.144552	-1.715897	-60.464264
15.497051	-2.014198	-69.486412
15.374098	-1.935196	-68.708344
15.400345	-1.863495	-67.563751
22.596371	-2.152794	-59.069519
24.172737	-1.563797	-61.399658
24.189499	-1.389694	-62.402771
24.252726	-1.277496	-63.467125
24.376148	-1.220093	-64.320694
24.318207	-1.347092	-65.660431
15.318090	-1.787491	-66.530830
15.309816	-1.603096	-65.619415
15.336033	-1.672096	-64.755043
15.329874	-1.758896	-63.694191
15.213303	-1.846397	-62.669220
15.414341	-2.052696	-61.801010
15.765205	-3.113396	-73.193932
15.489502	-2.926598	-72.656960
15.360191	-2.746399	-71.567802
15.386765	-2.628998	-70.628029
15.363306	-2.365997	-69.685509
15.240829	-2.141594	-68.623856
15.320400	-2.128891	-67.849518
14.898352	-2.132996	-64.507469
14.997282	-2.158997	-63.571106
14.935644	-2.149994	-62.646881
15.180349	-2.334595	-61.531067
15.150810	-2.617493	-60.683975
15.059282	-2.730499	-59.719269
15.124681	-2.824692	-58.655991
15.262146	-3.008797	-57.875549
15.749605	-4.031799	-75.331390
15.460318	-3.810493	-74.612663
15.411974	-3.506897	-73.679604
15.300823	-3.204796	-72.623566
15.085428	-3.123894	-71.876717
14.793076	-3.208397	-58.368286
15.047714	-3.489098	-57.490219
15.075218	-3.694199	-56.703720
15.096657	-4.023598	-55.783218
15.520069	-4.866997	-76.377769
15.460569	-4.524597	-75.664429
15.205046	-4.336296	-74.926582
14.564903	-4.339096	-56.508179
15.109852	-4.621895	-55.495026
15.110134	-4.811592	-54.844772
15.479074	-6.056992	-78.142220
15.618738	-5.703094	-77.501907
15.486725	-5.382492	-76.848831
15.036045	-5.539398	-54.396591
15.090254	-5.670395	-53.636246
15.087528	-6.115997	-52.841003
15.550123	-6.985092	-79.252739
15.537336	-6.599991	-78.689651
15.576151	-6.269394	-78.080070
14.690788	-6.307297	-53.530014
15.019936	-6.543396	-52.640839
24.374392	-1.469994	-66.508766
15.659353	-8.022392	-80.135437
15.576298	-7.585098	-79.623711
15.280643	-7.119896	-79.110992
24.386183	-1.512093	-67.489944
24.304276	-1.467194	-68.463173
24.355255	-1.592697	-69.480118
15.643402	-8.947495	-81.155502
15.610781	-8.623093	-80.627594
15.633787	-8.146393	-80.081970
24.388092	-1.650192	-70.499237
24.315777	-1.909195	-71.331474
15.889874	-10.106094	-82.178467
15.631735	-9.617691	-81.607468
15.325375	-9.224792	-81.061775
24.443624	-2.091492	-72.108696
24.059830	-1.107498	-63.504158
24.354916	-1.032394	-64.423912
15.656263	-10.709595	-82.466881
15.463388	-10.318695	-82.024910
22.062222	-2.263992	-58.344406
22.104525	-2.595291	-57.459229
21.462149	-5.121696	-77.979843
24.199217	-1.114494	-65.294060
23.746243	-9.331497	-81.886108
15.737879	-11.919296	-83.320946
15.654106	-11.503197	-82.804352
23.708683	-9.769196	-82.265564
21.463043	-5.608398	-78.511574
21.628885	-6.026794	-79.248154
21.979677	-2.892494	-56.743408
20.990509	-4.601196	-53.479294
20.942080	-4.221893	-54.241348
21.624994	-4.358696	-76.638229
21.551149	-4.699394	-77.482834
23.909109	-8.149696	-80.946320
23.623167	-8.598999	-81.510246
15.623734	-12.618698	-83.565948
15.385777	-12.359497	-83.092247
23.202789	-9.072495	-81.989334
23.565454	-7.135696	-79.811516
21.530008	-4.959496	-78.072861
20.913555	-3.804695	-54.701248
21.084982	-3.577492	-55.466888
21.130436	-3.371597	-56.242447
23.608953	-7.616692	-80.442673
23.511677	-8.011192	-81.144814
23.674755	-6.237595	-78.946907
23.633718	-6.651695	-79.454094
23.206135	-7.081093	-79.973335
21.507528	-3.283195	-74.768173
21.435221	-3.514099	-75.552116
21.465326	-3.882492	-76.251633
27.251356	-2.099899	-69.067429
20.946522	-2.876892	-56.707047
27.242874	-1.909798	-68.331047
27.257761	-1.806793	-67.308319
27.221785	-1.753593	-66.380905
21.098452	-2.574692	-57.471664
30.195547	-4.044296	-72.124550
30.246834	-3.863892	-71.250832
30.265362	-5.002594	-74.101334
15.996969	-13.619194	-84.272202
15.553104	-13.520096	-83.732643
30.414070	-4.673195	-73.268639
30.558992	-4.456299	-72.394325
15.321604	-14.343597	-84.034988
22.535673	-3.957993	-76.097130
16.474356	-1.989098	-70.524788
16.406731	-1.778694	-69.529701
16.327057	-1.762695	-68.622360
16.302393	-1.736397	-67.561241
16.278233	-1.678299	-66.590958
16.199139	-1.596596	-65.592033
16.203760	-1.585197	-64.564766
16.181896	-1.628998	-63.658653
16.213148	-1.653297	-62.601318
16.236143	-1.811897	-61.700195
16.375542	-2.080795	-60.785599
16.690420	-3.073997	-73.417404
16.482901	-2.659195	-72.599869
16.395672	-2.582993	-71.576767
16.269747	-2.352898	-70.723190
15.998224	-2.145096	-69.747849
15.986053	-2.179092	-61.395020
16.042021	-2.440994	-60.574493
16.108818	-2.566391	-59.615097
16.116291	-2.618996	-58.609131
16.093359	-3.064896	-57.589249
16.520929	-3.978592	-75.601288
16.488781	-3.695496	-74.576050
16.401230	-3.425797	-73.643608
16.212456	-3.121895	-73.019012
16.038889	-3.398796	-57.441666
16.116899	-3.617294	-56.644897
16.138346	-3.918091	-55.624771
16.386461	-4.118591	-54.945496
16.467485	-4.732796	-76.476883
16.395111	-4.309097	-75.811073
16.078276	-4.186493	-55.477859
16.025883	-4.592598	-54.646423
16.213642	-4.919395	-53.869705
16.625816	-5.992294	-78.313316
16.550129	-5.616493	-77.596794
16.356705	-5.242996	-76.874680
15.963440	-5.234497	-54.340408
16.019516	-5.547897	-53.638565
16.085657	-5.801392	-52.645111
16.686829	-6.809593	-79.353302
16.432062	-6.404396	-78.776009
22.442257	-3.587692	-75.509995
30.225674	-6.002197	-75.948723
16.510838	-7.873093	-80.275124
16.578186	-7.559593	-79.740128
27.267841	-3.096596	-72.997215
27.390673	-2.903992	-72.288406
16.686882	-8.905998	-81.433640
16.559525	-8.569992	-80.718987
27.298384	-2.713791	-71.384766
27.374891	-2.586594	-70.333878
16.731363	-9.912895	-82.117828
27.361256	-2.334793	-69.360550
30.466211	-5.689392	-75.292702
16.614397	-9.492798	-81.757401
27.483999	-2.143898	-68.483978
27.639582	-2.128593	-67.436607
16.658991	-10.641098	-82.470276
30.587460	-5.411194	-74.448090
30.774628	-5.148293	-73.658318
22.357086	-3.196693	-74.717667
22.031023	-3.300293	-56.413406
16.532341	-10.165695	-82.106697
22.042721	-3.634895	-55.491241
22.058033	-3.853592	-54.608551
16.590651	-11.738197	-83.313774
16.570665	-11.452599	-82.888329
30.428259	-6.836197	-76.826378
30.514828	-6.606697	-76.288147
30.707272	-6.192398	-75.614685
30.397640	-7.942398	-78.107994
30.567047	-7.635498	-77.347496
30.847778	-7.187897	-76.659210
21.133667	-2.247192	-58.243774
21.465036	-2.374092	-72.637489
22.526596	-4.872993	-77.501785
22.594275	-4.474396	-76.622581
21.463551	-2.687294	-73.430008
21.504534	-3.052895	-74.374100
22.129042	-4.188095	-54.353745
22.002342	-4.630692	-53.523209
21.077126	-1.936096	-58.597092
21.156761	-1.689995	-59.547104
21.172869	-1.537895	-60.488449
22.450136	-5.914894	-79.126358
21.267317	-1.298599	-61.426300
21.182163	-1.226997	-62.524139
21.306759	-1.196892	-63.442032
21.408522	-1.120392	-64.437653
20.774847	-1.119293	-65.800919
21.195808	-1.190399	-66.503746
21.166344	-1.274193	-67.550728
21.295235	-1.240593	-68.552834
21.368269	-1.412399	-69.549637
21.361362	-1.633293	-70.486969
21.359587	-1.791992	-71.538162
21.464998	-2.007294	-72.281998
21.247126	-1.107292	-61.764160
21.125238	-1.109093	-62.528381
27.073671	-4.117096	-75.163872
16.797127	-12.758797	-84.143539
16.680304	-12.538895	-83.720352
27.256941	-3.808098	-74.342567
27.497318	-3.577293	-73.430931
16.574995	-13.390594	-84.094948
27.459013	-3.200195	-72.630676
21.056087	-1.043991	-63.522453
17.747370	-1.106995	-66.316322
17.523977	-1.112297	-65.575150
17.377075	-2.093498	-71.552849
17.379532	-1.931595	-70.624161
17.367100	-1.678299	-69.562714
17.314379	-1.633499	-68.572121
17.319078	-1.611893	-67.577454
17.258085	-1.563698	-66.664513
17.155340	-1.390495	-65.726906
17.284262	-1.517197	-64.563820
17.195051	-1.576797	-63.572624
17.228848	-1.599792	-62.649048
17.203497	-1.653992	-61.610840
17.192068	-1.776993	-60.632278
17.271460	-1.939896	-59.662521
17.224072	-2.111794	-59.064117
17.621574	-2.851395	-73.405823
17.421360	-2.612396	-72.633125
17.441725	-2.314194	-71.649834
17.460072	-2.129692	-70.606819
16.904869	-2.139694	-60.312408
16.992189	-2.281693	-59.539246
17.044586	-2.564293	-58.525940
17.292660	-2.695892	-57.776779
17.478804	-4.109695	-76.207558
17.588642	-3.837997	-75.599098
17.469524	-3.598198	-74.586029
17.371866	-3.301094	-73.702103
16.981789	-3.214691	-57.399307
17.027500	-3.583694	-56.549652
17.076847	-3.777191	-55.655823
17.049681	-4.086998	-54.758377
17.747442	-4.961792	-77.329178
17.524321	-4.630096	-76.612846
17.299116	-4.180092	-75.950157
16.743513	-4.126198	-55.253464
16.962200	-4.434097	-54.542175
17.019293	-4.751793	-53.767227
17.641562	-5.724792	-78.476807
17.426157	-5.475891	-77.638016
17.246410	-5.145691	-77.070053
16.970259	-5.432999	-53.315994
16.939377	-5.622398	-52.636642
21.151562	-0.886093	-64.615158
17.662300	-6.671097	-79.509369
17.444767	-6.214493	-78.861046
21.261806	-0.821892	-65.474640
21.418287	-0.917297	-66.440605
21.281710	-0.998398	-67.560883
17.656712	-7.809792	-80.442825
17.406425	-7.377296	-79.755661
27.353331	-4.793091	-76.295326
27.487978	-4.580696	-75.396515
17.701254	-8.722893	-81.498741
17.507397	-8.353592	-80.784698
27.634544	-4.273499	-74.412399
21.285072	-1.017395	-68.523811
27.519791	-5.745796	-77.223587
17.623028	-9.801498	-82.216339
17.542746	-9.596497	-81.930435
27.625200	-5.460297	-76.567787
27.307583	-6.933792	-79.013054
27.573872	-6.595291	-78.435585
27.564579	-6.128998	-77.522240
21.241707	-1.111298	-69.180443
18.085091	-11.083694	-83.108482
27.212339	-8.111893	-79.911667
22.571690	-5.551292	-78.541145
22.508064	-5.129898	-77.723557
22.491352	-7.053596	-80.182220
17.658873	-10.614899	-82.607857
27.554428	-7.648994	-79.374657
27.802832	-7.219093	-78.863876
17.732147	-11.714096	-83.479622
22.609781	-6.589592	-79.536880
22.576044	-7.779892	-81.149895
22.598774	-7.505898	-80.559837
20.632839	-11.589798	-83.591858
22.612776	-9.003593	-82.117096
22.638409	-8.604294	-81.592415
20.713167	-10.306496	-82.947601
34.468117	-7.604897	-73.231071
17.528017	-11.426292	-82.981125
20.495161	-10.696198	-83.313873
22.594389	-9.610397	-82.463409
22.229418	-9.121696	-81.974434
20.718262	-9.291298	-81.938942
20.660311	-9.695694	-82.513962
27.184719	-9.114197	-80.920334
27.596060	-8.687294	-80.312134
27.703428	-8.221298	-79.659409
20.632023	-10.060097	-83.047005
22.722864	-10.695892	-83.310760
22.749744	-10.360397	-82.928787
20.643457	-8.607697	-81.516472
28.638865	-8.409492	-79.588516
34.033913	-7.083595	-72.894531
23.520729	-5.184593	-77.683388
23.550587	-5.624397	-78.467285
23.339014	-6.075195	-79.012169
20.695993	-7.564499	-80.671852
20.574062	-7.994896	-81.058235
28.773243	-7.371399	-78.554123
20.526070	-6.242294	-79.017357
20.571039	-6.587692	-79.497681
20.588610	-6.980598	-80.323730
28.470175	-7.790794	-79.213661
19.812176	-5.179291	-53.272141
20.459312	-5.191895	-77.903564
20.559473	-5.620094	-78.518456
20.597038	-6.096298	-79.101936
20.123154	-5.049797	-53.009552
31.262226	-5.037895	-73.184891
23.490788	-4.486397	-76.546135
23.556196	-4.858192	-77.390541
17.600235	-12.685898	-84.162804
17.645830	-12.484894	-83.861435
23.048620	-3.899292	-54.597061
23.047920	-3.633095	-55.433578
17.434401	-13.229591	-84.095207
23.003241	-3.306297	-56.343903
23.647366	-3.284996	-74.561806
23.468967	-3.631393	-75.480988
18.720446	-1.084694	-68.245880
18.265675	-1.098099	-67.506012
18.322872	-1.022491	-66.606956
18.275099	-0.960693	-65.520767
18.349504	-1.033897	-64.826515
18.431717	-2.068497	-71.693192
18.488966	-1.814896	-70.503654
18.393637	-1.627792	-69.585487
18.290833	-1.457397	-68.686775
18.195747	-1.339897	-67.638077
18.194424	-1.217094	-66.587555
18.119600	-1.232697	-65.441528
18.206831	-1.384995	-64.465858
18.188013	-1.507195	-63.591309
18.176872	-1.572693	-62.599609
18.191736	-1.526596	-61.566132
18.147324	-1.669792	-60.518951
18.039185	-1.934296	-59.669006
17.662422	-2.103996	-59.038239
18.519817	-3.046097	-74.274887
18.491043	-2.732796	-73.498535
18.441294	-2.447891	-72.633270
18.497902	-2.270691	-71.560295
18.379328	-2.126595	-70.803749
18.108765	-2.164993	-59.376999
18.012587	-2.343697	-58.546402
18.072239	-2.661499	-57.597900
18.344784	-2.921097	-56.784515
18.338902	-4.064095	-76.335030
18.443462	-3.667999	-75.562889
18.456820	-3.378098	-74.538727
18.197214	-3.161697	-73.755371
18.082190	-3.366295	-56.400803
18.063660	-3.640297	-55.582397
18.119806	-3.898697	-54.806076
18.598619	-4.782791	-77.514595
18.541611	-4.472595	-76.746681
17.942421	-4.402298	-54.395264
17.890728	-4.732498	-53.599884
18.547560	-6.080193	-79.083847
18.586918	-5.625694	-78.522545
18.476484	-5.237198	-77.854218
17.823587	-5.385094	-53.335556
17.969954	-5.634491	-52.536484
23.608135	-4.080696	-76.187202
18.777529	-6.950699	-80.157112
18.571304	-6.607994	-79.559395
18.711109	-6.137497	-78.867249
23.035492	-2.953598	-56.633179
23.081396	-2.626793	-57.473633
18.698690	-8.013397	-81.171486
18.559221	-7.658592	-80.531998
18.259083	-7.247795	-80.012474
23.157593	-2.387695	-58.414383
23.272404	-2.230293	-59.257996
18.939295	-9.104492	-82.077538
18.631495	-8.606094	-81.621803
18.330648	-8.201996	-80.931412
23.452858	-2.334991	-72.672440
23.412899	-2.596298	-73.500420
23.234484	-2.908195	-74.320343
22.909166	-2.100998	-58.728577
22.986917	-1.918594	-59.502747
23.159933	-1.616196	-60.493134
23.218355	-1.426498	-61.488983
31.304937	-4.655296	-72.257278
28.564829	-6.404099	-77.432457
18.683294	-9.684395	-82.458267
18.470924	-9.342896	-82.043098
23.251202	-1.362297	-62.548813
31.146851	-5.935295	-75.246582
31.473541	-5.700294	-74.295685
31.580181	-5.545898	-73.343399
31.819365	-5.192093	-72.452423
33.675842	-7.211693	-73.290695
33.452274	-7.504692	-74.294876
33.331284	-7.657196	-75.219147
23.159624	-1.304199	-63.378181
28.451815	-6.786896	-78.218399
28.524311	-5.122795	-75.441353
28.617779	-5.547096	-76.370735
31.394613	-6.813194	-76.124283
23.240086	-1.127296	-64.457237
31.456245	-6.493698	-75.360107
31.672035	-6.304794	-74.585091
31.084869	-8.073296	-77.806488
33.352966	-6.820297	-73.154144
33.082573	-7.093697	-74.280365
31.478891	-7.758095	-77.175659
23.400358	-1.120995	-65.531670
23.416990	-1.257797	-66.469147
23.345976	-1.312996	-67.587990
23.451567	-1.346191	-68.535599
31.620436	-7.388794	-76.476578
19.969910	-4.647995	-53.613968
19.948309	-4.335396	-54.263519
20.399076	-4.296997	-76.606171
28.496103	-5.908295	-77.168282
20.491270	-4.672295	-77.485947
20.920240	-5.107796	-78.025658
28.572083	-4.221695	-73.539635
28.464521	-4.593399	-74.337601
28.341705	-4.799591	-75.242744
20.119692	-3.754097	-54.683258
23.356276	-1.596596	-69.505585
19.984142	-3.587097	-55.445206
20.111977	-3.277298	-56.205154
20.568823	-3.209396	-74.533638
20.446493	-3.556595	-75.588524
20.690926	-3.917892	-76.400787
19.581032	-3.086098	-55.978073
20.100168	-2.831696	-56.592407
19.969847	-2.582893	-57.460297
20.035917	-2.221596	-58.412552
19.759069	-2.123093	-59.177444
18.669945	-10.796494	-83.133286
18.572987	-10.615395	-82.758247
23.399616	-1.699493	-70.430573
23.329794	-1.923691	-71.424538
18.652344	-12.102898	-84.100639
18.622911	-11.617493	-83.609344
18.253292	-11.219994	-83.067238
23.452227	-2.060493	-72.274773
23.307266	-1.034492	-63.509727
18.702017	-12.327896	-83.966522
23.143967	-0.956596	-64.497688
23.288157	-0.960396	-65.446045
23.202057	-1.089897	-66.416191
23.039188	-1.107796	-67.468185
22.961754	-1.111099	-68.508835
27.902632	-2.051697	-68.104561
19.286858	-1.047699	-68.654724
19.140984	-1.101494	-67.097191
19.351055	-1.033897	-66.381271
19.320265	-0.860596	-65.545326
19.199652	-0.901497	-64.632172
19.226732	-1.019196	-63.572601
19.405502	-1.068993	-62.469223
19.433510	-1.102592	-61.973358
19.384741	-2.044693	-72.314766
19.340828	-1.941391	-71.528923
19.450573	-1.754593	-70.466743
19.354874	-1.613197	-69.573250
19.435297	-1.316391	-68.544922
19.191664	-1.326698	-67.497047
19.332344	-1.268593	-66.449333
19.296066	-1.134193	-65.809227
19.007332	-1.276192	-64.433289
19.155262	-1.327393	-63.519409
19.133488	-1.373993	-62.589554
19.200058	-1.462097	-61.478317
19.206463	-1.618195	-60.615234
19.048391	-1.961197	-59.663101
19.086779	-2.118797	-58.694244
19.510191	-2.931496	-74.457550
19.455572	-2.653397	-73.544403
19.332661	-2.340591	-72.639175
19.413567	-2.199799	-71.752106
18.981098	-2.139694	-59.387726
19.036762	-2.295593	-58.552002
19.053967	-2.575798	-57.494492
19.095171	-2.866898	-56.684235
19.524052	-4.009697	-76.192955
19.504107	-3.610794	-75.516899
19.540098	-3.147598	-74.575081
19.111713	-3.188995	-56.276367
19.111532	-3.552193	-55.537125
19.027796	-3.793793	-54.786469
19.553352	-4.706093	-77.546638
19.425587	-4.424095	-76.653908
27.968468	-2.061295	-67.450920
20.288342	-2.359993	-72.620033
20.442785	-2.669197	-73.459984
18.954018	-4.328491	-54.420197
18.935368	-4.733894	-53.690628
19.553171	-5.685394	-78.478874
20.493353	-2.921394	-74.232063
20.273540	-1.977097	-58.651901
20.204851	-1.813995	-59.643326
19.547237	-5.255592	-77.949821
19.043205	-5.234894	-53.326904
28.231874	-3.110596	-72.106407
20.131943	-1.612694	-60.516541
20.056423	-1.357391	-61.418091
20.267277	-1.150398	-62.503555
32.863029	-7.238998	-74.425667
32.667530	-7.412598	-75.469284
32.459358	-7.648499	-76.245049
28.298332	-2.883797	-71.340904
19.951853	-1.145996	-63.474228
20.271959	-1.139496	-65.788849
20.269403	-1.243195	-66.505081
20.253805	-1.323997	-67.509270
32.844433	-6.167793	-72.590126
32.595425	-6.458092	-73.346764
32.423016	-6.677193	-74.276009
32.399376	-6.923996	-75.283737
32.092049	-7.091896	-75.880180
28.378698	-2.684593	-70.329430
28.372066	-2.576492	-69.363640
28.435450	-2.511795	-68.294792
20.358543	-1.310593	-68.391884
20.429356	-1.433693	-69.567795
20.359642	-1.609093	-70.591797
20.370932	-1.748695	-71.509796
20.423338	-2.083191	-72.362732
32.208443	-5.872597	-73.174141
32.151737	-6.021996	-73.793152
20.278952	-1.107796	-61.712204
20.309589	-0.969894	-62.549622
20.149212	-0.839996	-63.578857
20.101345	-0.732094	-64.499809
20.374567	-0.835197	-65.378899
20.286411	-1.071594	-66.473389
20.537962	-1.091896	-67.631340
20.308008	-1.023499	-68.209358
20.627659	-1.094498	-69.088463
28.195766	-5.035194	-76.023796
19.743254	-11.571999	-83.626694
19.636969	-12.111496	-84.059555
28.590195	-3.219391	-71.571838
28.375866	-3.460396	-72.440964
19.498760	-10.388992	-82.937752
19.646477	-10.754494	-83.354164
28.327908	-3.786697	-73.284142
19.732065	-9.264091	-81.976578
19.591902	-9.686592	-82.520691
28.063337	-3.986191	-73.920303
19.582476	-8.616898	-81.511131
19.566778	-7.464096	-80.570328
19.683903	-7.828995	-81.046204
19.664904	-7.032097	-80.310356
19.572517	-6.601097	-79.603477
19.538343	-6.179092	-78.864792
